# .PCD v0.7 - Point Cloud Data file format
VERSION 0.7
FIELDS x y z rgb id confidence
SIZE 4 4 4 4 4 4
TYPE F F F F I F
COUNT 1 1 1 1 1 1
WIDTH 880
HEIGHT 1
VIEWPOINT 0 0 0 1 0 0 0
POINTS 880
DATA ascii
0.25003588 -0.0097665982 1.2547857 1.6147633e-38 1953 1
0.27012378 -0.0095619 1.2550001 1.6147633e-38 1954 1
0.28959808 -0.0094456086 1.2570955 1.6147633e-38 1955 1
0.30966055 -0.009566091 1.2553889 1.6147633e-38 1956 1
0.33000332 -0.00956506 1.2554376 1.6147633e-38 1957 1
0.34727699 -0.010250429 1.2588999 1.6147633e-38 1958 1
0.37056816 -0.0096438704 1.2562726 1.6147633e-38 1959 1
0.38964769 -0.0095619075 1.2550001 1.6147633e-38 1960 1
0.40938175 -0.010066414 1.2583334 1.6147633e-38 1961 1
0.42993179 -0.010622723 1.2574761 1.6147633e-38 1962 1
0.44695053 -0.011776639 1.2587647 1.6147633e-38 1963 1
0.47842002 -0.0023980953 1.2590001 1.6147633e-38 1964 1
0.48081812 -0.0023980953 1.2590001 1.6147633e-38 1965 1
0.53171957 -0.0061499542 1.2590001 1.6147633e-38 1966 1
0.5472967 -0.01053442 1.2576998 1.6147633e-38 1967 1
-0.70351982 0.0048435898 1.2473077 1.6147633e-38 1968 1
-0.68796033 0.0087385271 1.2455152 1.6147633e-38 1969 1
-0.6702162 0.0094062919 1.2451787 1.6147633e-38 1970 1
-0.6498946 0.0094866855 1.2452346 1.6147633e-38 1971 1
-0.63005304 0.0097615728 1.244765 1.6147633e-38 1972 1
-0.61014217 0.0084029585 1.2421228 1.6147633e-38 1973 1
-0.59031314 0.0046464973 1.2430359 1.6147633e-38 1974 1
-0.56913793 0.0072468324 1.2416087 1.6147633e-38 1975 1
-0.55437565 0.0092438851 1.2414103 1.6147633e-38 1976 1
-0.52859491 0.010051064 1.2441936 1.6147633e-38 1977 1
-0.50958723 0.0096267899 1.2429351 1.6147633e-38 1978 1
-0.48992348 0.009355369 1.244027 1.6147633e-38 1979 1
-0.47260949 0.009698038 1.2415715 1.6147633e-38 1980 1
-0.44691449 0.010266033 1.2434763 1.6147633e-38 1981 1
-0.43041426 0.0094857179 1.2450005 1.6147633e-38 1982 1
-0.40982258 0.009481132 1.2436879 1.6147633e-38 1983 1
-0.38984942 0.0092746681 1.2433432 1.6147633e-38 1984 1
-0.36941943 0.0096763065 1.2421515 1.6147633e-38 1985 1
-0.35039461 0.0096983584 1.2440909 1.6147633e-38 1986 1
-0.33021852 0.009274777 1.2438002 1.6147633e-38 1987 1
-0.31065714 0.0094857188 1.2450002 1.6147633e-38 1988 1
-0.29039758 0.0094846599 1.244556 1.6147633e-38 1989 1
-0.26991671 0.0094922297 1.2459562 1.6147633e-38 1990 1
-0.25025886 0.0095123937 1.2481618 1.6147633e-38 1991 1
-0.23030771 0.0096256454 1.2473847 1.6147633e-38 1992 1
-0.21002197 0.0093889367 1.2466905 1.6147633e-38 1993 1
-0.18972673 0.0094868345 1.2450784 1.6147633e-38 1994 1
-0.1696396 0.0094909426 1.2456255 1.6147633e-38 1995 1
-0.14981191 0.0095098251 1.2484379 1.6147633e-38 1996 1
-0.13045421 0.0094877267 1.2452346 1.6147633e-38 1997 1
-0.11027141 0.0094857179 1.2450005 1.6147633e-38 1998 1
-0.090142749 0.0094887679 1.2453909 1.6147633e-38 1999 1
-0.069957167 0.0094857179 1.2450005 1.6147633e-38 2000 1
-0.049800005 0.0094857179 1.2450002 1.6147633e-38 2001 1
-0.029604541 0.0094765117 1.2435553 1.6147633e-38 2002 1
-0.0094967289 0.0094936024 1.2464064 1.6147633e-38 2003 1
0.0095087076 0.0095014153 1.2474221 1.6147633e-38 2004 1
0.029632621 0.0094785355 1.2446811 1.6147633e-38 2005 1
0.049973883 0.0095226923 1.2492969 1.6147633e-38 2006 1
0.070087045 0.0095058233 1.2475002 1.6147633e-38 2007 1
0.090086758 0.0094850035 1.244625 1.6147633e-38 2008 1
0.110076 0.009493405 1.2443243 1.6147633e-38 2009 1
0.13035424 0.0094691878 1.2459079 1.6147633e-38 2010 1
0.14915013 0.0094707143 1.242875 1.6147633e-38 2011 1
0.1701079 0.0095178587 1.2490278 1.6147633e-38 2012 1
0.19000645 0.009497772 1.2468753 1.6147633e-38 2013 1
0.20956185 0.0095267128 1.2502344 1.6147633e-38 2014 1
0.22982492 0.0095285075 1.2503474 1.6147633e-38 2015 1
0.25030348 0.0095320707 1.2514845 1.6147633e-38 2016 1
0.27012378 0.0095619056 1.2550001 1.6147633e-38 2017 1
0.28936392 0.009564409 1.2555003 1.6147633e-38 2018 1
0.30963883 0.0095183207 1.2558448 1.6147633e-38 2019 1
0.32962984 0.0093212361 1.2567707 1.6147633e-38 2020 1
0.35284707 0.010246407 1.2590003 1.6147633e-38 2021 1
0.36934784 0.0091785258 1.258724 1.6147633e-38 2022 1
0.38935512 0.0096705481 1.2570294 1.6147633e-38 2023 1
0.40761551 0.010277384 1.2585744 1.6147633e-38 2024 1
0.43064991 0.011942514 1.2590003 1.6147633e-38 2025 1
0.45024237 0.013389362 1.2589999 1.6147633e-38 2026 1
0.46989352 0.012256932 1.2589999 1.6147633e-38 2027 1
0.48081812 0.0071942862 1.2589999 1.6147633e-38 2028 1
0.53376865 0.0094393129 1.2578835 1.6147633e-38 2029 1
0.54632157 0.0091325548 1.2567273 1.6147633e-38 2030 1
-0.6852836 0.038354766 1.2585 1.6147633e-38 2031 1
-0.67227572 0.02824863 1.251058 1.6147633e-38 2032 1
-0.64940989 0.026758162 1.2482499 1.6147633e-38 2033 1
-0.62858933 0.029001776 1.2436419 1.6147633e-38 2034 1
-0.61213303 0.030358285 1.2442857 1.6147633e-38 2035 1
-0.58110327 0.026395872 1.2410001 1.6147633e-38 2036 1
-0.56913781 0.032218348 1.2429472 1.6147633e-38 2037 1
-0.54905605 0.027669143 1.2414001 1.6147633e-38 2038 1
-0.52910477 0.029130884 1.2439491 1.6147633e-38 2039 1
-0.50933164 0.029189348 1.2454791 1.6147633e-38 2040 1
-0.48929241 0.028990833 1.2469296 1.6147633e-38 2041 1
-0.4696306 0.029956939 1.2432297 1.6147633e-38 2042 1
-0.45086581 0.029650236 1.2450716 1.6147633e-38 2043 1
-0.43048128 0.029808326 1.2441416 1.6147633e-38 2044 1
-0.41139179 0.027774019 1.2475388 1.6147633e-38 2045 1
-0.38925859 0.027450234 1.2467854 1.6147633e-38 2046 1
-0.37002492 0.029676123 1.2470512 1.6147633e-38 2047 1
-0.35084435 0.028594643 1.2502434 1.6147633e-38 2048 1
-0.32961267 0.029768577 1.2499305 1.6147633e-38 2049 1
-0.31091282 0.029383512 1.2485074 1.6147633e-38 2050 1
-0.29065228 0.029664725 1.2456672 1.6147633e-38 2051 1
-0.27026585 0.029687544 1.2466004 1.6147633e-38 2052 1
-0.25073349 0.029275127 1.249338 1.6147633e-38 2053 1
-0.22968778 0.029512387 1.2491651 1.6147633e-38 2054 1
-0.21009116 0.027834257 1.2479826 1.6147633e-38 2055 1
-0.18947174 0.028957823 1.245896 1.6147633e-38 2056 1
-0.16981964 0.029692538 1.2469143 1.6147633e-38 2057 1
-0.14948718 0.029657401 1.2456948 1.6147633e-38 2058 1
-0.13016334 0.02997517 1.2466004 1.6147633e-38 2059 1
-0.1101112 0.029324681 1.2477928 1.6147633e-38 2060 1
-0.090656221 0.028889593 1.2449244 1.6147633e-38 2061 1
-0.070277132 0.027701531 1.2449244 1.6147633e-38 2062 1
-0.049414959 0.027607599 1.243638 1.6147633e-38 2063 1
-0.029910715 0.026387252 1.2460004 1.6147633e-38 2064 1
-0.0088877222 0.029131493 1.2503787 1.6147633e-38 2065 1
0.0091025233 0.029122535 1.245206 1.6147633e-38 2066 1
0.029932046 0.029125176 1.2439874 1.6147633e-38 2067 1
0.049954109 0.029737154 1.2488891 1.6147633e-38 2068 1
0.069861293 0.02935409 1.2482054 1.6147633e-38 2069 1
0.090122879 0.029097479 1.2455739 1.6147633e-38 2070 1
0.10985347 0.029364582 1.2458575 1.6147633e-38 2071 1
0.1300623 0.03001439 1.2469214 1.6147633e-38 2072 1
0.14954777 0.029677795 1.2461671 1.6147633e-38 2073 1
0.17023751 0.029671907 1.250875 1.6147633e-38 2074 1
0.1898669 0.029185276 1.2505523 1.6147633e-38 2075 1
0.20936747 0.029188449 1.253836 1.6147633e-38 2076 1
0.23024678 0.028768033 1.2539713 1.6147633e-38 2077 1
0.24934454 0.028622078 1.2506666 1.6147633e-38 2078 1
0.27039808 0.029466622 1.2550725 1.6147633e-38 2079 1
0.28941664 0.029902389 1.2557217 1.6147633e-38 2080 1
0.30943605 0.02949219 1.2571863 1.6147633e-38 2081 1
0.32948551 0.030215062 1.2561426 1.6147633e-38 2082 1
0.34825587 0.031310569 1.2570353 1.6147633e-38 2083 1
0.37346807 0.026872771 1.2590001 1.6147633e-38 2084 1
0.39178386 0.029488143 1.2584101 1.6147633e-38 2085 1
0.40865484 0.029773155 1.2565522 1.6147633e-38 2086 1
0.43101767 0.024220765 1.2590002 1.6147633e-38 2087 1
0.45072207 0.027618067 1.2590002 1.6147633e-38 2088 1
0.46914911 0.030787501 1.2585628 1.6147633e-38 2089 1
0.48575535 0.037029412 1.2590001 1.6147633e-38 2090 1
0.50983512 0.023501335 1.2590002 1.6147633e-38 2091 1
0.53479415 0.026232166 1.2573228 1.6147633e-38 2092 1
0.54558671 0.027982054 1.2565138 1.6147633e-38 2093 1
-0.50867146 0.041499998 1.245 1.6147633e-38 2094 1
-0.44227144 0.041499998 1.245 1.6147633e-38 2095 1
-0.43752858 0.041499998 1.245 1.6147633e-38 2096 1
-0.36856622 0.041883338 1.2565001 1.6147633e-38 2097 1
-0.35175839 0.042719051 1.2576667 1.6147633e-38 2098 1
-0.32965544 0.043245934 1.2511765 1.6147633e-38 2099 1
-0.31554288 0.041833337 1.2550001 1.6147633e-38 2100 1
-0.24285713 0.041666668 1.25 1.6147633e-38 2101 1
-0.23809522 0.041666668 1.25 1.6147633e-38 2102 1
-0.18713748 0.042410117 1.245625 1.6147633e-38 2103 1
-0.17002064 0.041611109 1.2483333 1.6147633e-38 2104 1
-0.14956939 0.041499998 1.245 1.6147633e-38 2105 1
-0.12809542 0.041753333 1.2526 1.6147633e-38 2106 1
-0.091300003 0.041499998 1.245 1.6147633e-38 2107 1
-0.0035857146 0.041833337 1.2550001 1.6147633e-38 2108 1
0.0011952382 0.041833337 1.2550001 1.6147633e-38 2109 1
0.03690476 0.041666668 1.25 1.6147633e-38 2110 1
0.045238096 0.041666668 1.25 1.6147633e-38 2111 1
0.098098099 0.041366667 1.2410001 1.6147633e-38 2112 1
0.10933845 0.041587502 1.247625 1.6147633e-38 2113 1
0.13206154 0.04255458 1.2546155 1.6147633e-38 2114 1
0.14971311 0.042771421 1.2474999 1.6147633e-38 2115 1
0.16879421 0.042364556 1.2550001 1.6147633e-38 2116 1
0.18436381 0.041900005 1.2570001 1.6147633e-38 2117 1
0.23210135 0.043337014 1.2589999 1.6147633e-38 2118 1
0.27280316 0.043083329 1.2508334 1.6147633e-38 2119 1
0.28566194 0.041833337 1.2550001 1.6147633e-38 2120 1
0.31774762 0.041966669 1.2590001 1.6147633e-38 2121 1
0.32681242 0.041900005 1.257 1.6147633e-38 2122 1
0.39629659 0.043551244 1.2563999 1.6147633e-38 2123 1
0.40619448 0.043479256 1.2533572 1.6147633e-38 2124 1
0.45827597 0.043885149 1.2590001 1.6147633e-38 2125 1
0.46817666 0.04303246 1.2577692 1.6147633e-38 2126 1
0.4919267 0.045487367 1.2521155 1.6147633e-38 2127 1
0.5064671 0.045431793 1.253077 1.6147633e-38 2128 1
-0.72094858 -0.56154287 1.268 1.6147633e-38 2129 1
-0.71548057 -0.5612129 1.2755001 1.6147633e-38 2130 1
-0.72175366 -0.55630982 1.268 1.6147633e-38 2131 1
-0.7112124 -0.55071992 1.2695792 1.6147633e-38 2132 1
-0.72176576 -0.5270229 1.2780001 1.6147633e-38 2133 1
-0.71074229 -0.53240418 1.273 1.6147633e-38 2134 1
-0.71629822 -0.50864679 1.2748486 1.6147633e-38 2135 1
-0.72536838 -0.49250132 1.2656001 1.6147633e-38 2136 1
-0.71477824 -0.48821989 1.2708001 1.6147633e-38 2137 1
-0.72225338 -0.46443522 1.2650001 1.6147633e-38 2138 1
-0.71366411 -0.47106129 1.2709833 1.6147633e-38 2139 1
-0.72108191 -0.44661337 1.2640001 1.6147633e-38 2140 1
-0.71242058 -0.4494693 1.2672549 1.6147633e-38 2141 1
-0.72148317 -0.43457529 1.2640001 1.6147633e-38 2142 1
-0.71550626 -0.43220288 1.2694699 1.6147633e-38 2143 1
-0.71644241 -0.40979204 1.27168 1.6147633e-38 2144 1
-0.72108191 -0.38401523 1.2640001 1.6147633e-38 2145 1
-0.71417475 -0.38879627 1.2700953 1.6147633e-38 2146 1
-0.71338946 -0.37054682 1.2699758 1.6147633e-38 2147 1
-0.72159481 -0.3513729 1.2745001 1.6147633e-38 2148 1
-0.7172026 -0.35085192 1.2695833 1.6147633e-38 2149 1
-0.71117425 -0.32977432 1.2694074 1.6147633e-38 2150 1
-0.72176576 -0.30185145 1.2780001 1.6147633e-38 2151 1
-0.71438128 -0.3116965 1.2712353 1.6147633e-38 2152 1
-0.72176576 -0.29698288 1.2780001 1.6147633e-38 2153 1
-0.7116251 -0.28725138 1.2710714 1.6147633e-38 2154 1
-0.71433228 -0.26890263 1.2691332 1.6147633e-38 2155 1
-0.72135717 -0.24854763 1.273 1.6147633e-38 2156 1
-0.71284366 -0.24452496 1.2723 1.6147633e-38 2157 1
-0.72135717 -0.22308287 1.273 1.6147633e-38 2158 1
-0.70996881 -0.23028564 1.2703266 1.6147633e-38 2159 1
-0.70745206 -0.21720146 1.2664615 1.6147633e-38 2160 1
-0.70659733 -0.17415321 1.2648572 1.6147633e-38 2161 1
-0.71126121 -0.14681849 1.2723076 1.6147633e-38 2162 1
-0.67673147 -0.14240573 1.2780001 1.6147633e-38 2163 1
-0.72108191 -0.13121524 1.2640001 1.6147633e-38 2164 1
-0.7147522 -0.12946929 1.2681282 1.6147633e-38 2165 1
-0.68572563 -0.12624682 1.2696956 1.6147633e-38 2166 1
-0.67703319 -0.12659447 1.2698332 1.6147633e-38 2167 1
0.076683804 -0.12257332 1.268 1.6147633e-38 2168 1
0.084533334 -0.12196951 1.268 1.6147633e-38 2169 1
-0.71024764 -0.11857525 1.2640001 1.6147633e-38 2170 1
-0.68484008 -0.1187619 1.266 1.6147633e-38 2171 1
-0.67452055 -0.11670273 1.267 1.6147633e-38 2172 1
-0.57662481 -0.1143619 1.2640001 1.6147633e-38 2173 1
-0.5101878 -0.11754553 1.2724001 1.6147633e-38 2174 1
-0.49958095 -0.11676953 1.2640001 1.6147633e-38 2175 1
-0.32864001 -0.11195429 1.2640001 1.6147633e-38 2176 1
0.075551674 -0.11506692 1.26675 1.6147633e-38 2177 1
0.085352764 -0.11589678 1.2675998 1.6147633e-38 2178 1
0.24791498 -0.10559959 1.2652631 1.6147633e-38 2179 1
0.27085716 -0.10713905 1.2640001 1.6147633e-38 2180 1
0.29145566 -0.10660402 1.2640001 1.6147633e-38 2181 1
0.3166019 -0.10232381 1.2640001 1.6147633e-38 2182 1
0.32589048 -0.10300667 1.265 1.6147633e-38 2183 1
0.36974189 -0.10457428 1.265 1.6147633e-38 2184 1
0.39522555 -0.10241868 1.2652 1.6147633e-38 2185 1
0.41170287 -0.10352762 1.2640001 1.6147633e-38 2186 1
0.43080533 -0.10482519 1.2651111 1.6147633e-38 2187 1
0.45202982 -0.10471077 1.2690454 1.6147633e-38 2188 1
0.46417522 -0.10367776 1.2725453 1.6147633e-38 2189 1
0.4953284 -0.10184155 1.2716361 1.6147633e-38 2190 1
0.50749922 -0.10168783 1.269923 1.6147633e-38 2191 1
0.53337228 -0.10139991 1.2704999 1.6147633e-38 2192 1
0.54597563 -0.10103174 1.2729999 1.6147633e-38 2193 1
0.28289524 -0.081859052 1.2640001 1.6147633e-38 2194 1
0.31442454 -0.088975251 1.2642 1.6147633e-38 2195 1
0.32895276 -0.088069454 1.264151 1.6147633e-38 2196 1
0.35021514 -0.085777804 1.2641 1.6147633e-38 2197 1
0.37022611 -0.089519672 1.2640001 1.6147633e-38 2198 1
0.39062476 -0.089738473 1.2659701 1.6147633e-38 2199 1
0.40950158 -0.090010546 1.2640001 1.6147633e-38 2200 1
0.42947215 -0.090029635 1.2657461 1.6147633e-38 2201 1
0.44964951 -0.088681124 1.2645454 1.6147633e-38 2202 1
0.46949759 -0.090551674 1.2644516 1.6147633e-38 2203 1
0.49064371 -0.089455783 1.2667396 1.6147633e-38 2204 1
0.51052004 -0.089463547 1.2670518 1.6147633e-38 2205 1
0.53102714 -0.088688754 1.2654077 1.6147633e-38 2206 1
0.54826152 -0.090646088 1.2680001 1.6147633e-38 2207 1
0.27567241 -0.078247622 1.2640001 1.6147633e-38 2208 1
0.31419429 -0.078247622 1.2640001 1.6147633e-38 2209 1
0.33116779 -0.070724584 1.2649633 1.6147633e-38 2210 1
0.34940186 -0.069039881 1.265017 1.6147633e-38 2211 1
0.37366244 -0.077284567 1.2640001 1.6147633e-38 2212 1
0.39251253 -0.072723821 1.2648425 1.6147633e-38 2213 1
0.40820092 -0.072556883 1.2640001 1.6147633e-38 2214 1
0.4299669 -0.069763556 1.2650141 1.6147633e-38 2215 1
0.44979995 -0.069850892 1.2648525 1.6147633e-38 2216 1
0.46965575 -0.070077248 1.2661767 1.6147633e-38 2217 1
0.49107596 -0.069950819 1.2672675 1.6147633e-38 2218 1
0.51014775 -0.070040233 1.2667371 1.6147633e-38 2219 1
0.52782041 -0.071067244 1.2661695 1.6147633e-38 2220 1
0.55228108 -0.066209525 1.2640001 1.6147633e-38 2221 1
0.33746791 -0.058184128 1.2640001 1.6147633e-38 2222 1
0.34996465 -0.056922987 1.2640001 1.6147633e-38 2223 1
0.37759495 -0.044942226 1.2640001 1.6147633e-38 2224 1
0.38160762 -0.043337144 1.2640001 1.6147633e-38 2225 1
0.41772193 -0.046948571 1.2640001 1.6147633e-38 2226 1
0.42839098 -0.05275517 1.2640001 1.6147633e-38 2227 1
0.45056593 -0.050801892 1.2641937 1.6147633e-38 2228 1
0.47015798 -0.050639719 1.2658124 1.6147633e-38 2229 1
0.49001974 -0.050911035 1.2660298 1.6147633e-38 2230 1
0.51036781 -0.050256398 1.2661765 1.6147633e-38 2231 1
0.52663332 -0.049360745 1.2640976 1.6147633e-38 2232 1
0.54742372 -0.050931141 1.2649362 1.6147633e-38 2233 1
0.35665596 -0.023091257 1.2640001 1.6147633e-38 2234 1
0.37037209 -0.02969397 1.2640001 1.6147633e-38 2235 1
0.38802794 -0.038120639 1.2640001 1.6147633e-38 2236 1
0.41291818 -0.032142609 1.2644103 1.6147633e-38 2237 1
0.42346719 -0.029817753 1.26448 1.6147633e-38 2238 1
0.45227832 -0.037884597 1.2640001 1.6147633e-38 2239 1
0.47213405 -0.032502852 1.2640001 1.6147633e-38 2240 1
0.48967016 -0.029796669 1.2645713 1.6147633e-38 2241 1
0.51015693 -0.030812468 1.2666856 1.6147633e-38 2242 1
0.52862787 -0.029910764 1.2652352 1.6147633e-38 2243 1
0.54759169 -0.035476983 1.2640001 1.6147633e-38 2244 1
0.2997486 -0.018057143 1.2640001 1.6147633e-38 2245 1
0.35622737 -0.0085269837 1.2640001 1.6147633e-38 2246 1
0.36234668 -0.0088279368 1.2640001 1.6147633e-38 2247 1
0.41772193 -0.0024076193 1.2640001 1.6147633e-38 2248 1
0.42554671 -0.0018057146 1.2640001 1.6147633e-38 2249 1
0.45373592 -0.0065206359 1.2640001 1.6147633e-38 2250 1
0.47008073 -0.0093669146 1.2661537 1.6147633e-38 2251 1
0.49014413 -0.010087318 1.2646875 1.6147633e-38 2252 1
0.51004946 -0.0096212104 1.265015 1.6147633e-38 2253 1
0.52789259 -0.01234076 1.2642 1.6147633e-38 2254 1
0.54907715 -0.0057257148 1.265 1.6147633e-38 2255 1
0.56375712 -0.010911429 1.273 1.6147633e-38 2256 1
0.34926173 0.0097351549 1.2640001 1.6147633e-38 2257 1
0.3725791 0.010834285 1.2640001 1.6147633e-38 2258 1
0.39123812 0.018057143 1.2640001 1.6147633e-38 2259 1
0.41675887 0.0072228573 1.2640001 1.6147633e-38 2260 1
0.42855614 0.0081649711 1.2640001 1.6147633e-38 2261 1
0.44989645 0.0060190484 1.2640001 1.6147633e-38 2262 1
0.47035748 0.0051888344 1.2640001 1.6147633e-38 2263 1
0.49171332 0.010114093 1.2642 1.6147633e-38 2264 1
0.51040316 0.0097883893 1.264645 1.6147633e-38 2265 1
0.52510887 0.010081089 1.2646859 1.6147633e-38 2266 1
-0.40737066 0.036451425 1.2686666 1.6147633e-38 2267 1
-0.39502057 0.036963429 1.2684 1.6147633e-38 2268 1
-0.34798357 0.037414923 1.2672222 1.6147633e-38 2269 1
-0.25480637 0.038923178 1.2640001 1.6147633e-38 2270 1
-0.22220191 0.039851431 1.268 1.6147633e-38 2271 1
-0.21857904 0.039851431 1.268 1.6147633e-38 2272 1
-0.021288889 0.035752382 1.2653333 1.6147633e-38 2273 1
-0.016871113 0.037360001 1.2653333 1.6147633e-38 2274 1
0.19773713 0.038584761 1.266 1.6147633e-38 2275 1
0.21500039 0.039244194 1.2640001 1.6147633e-38 2276 1
0.22349441 0.038711838 1.2645714 1.6147633e-38 2277 1
0.31419429 0.039725717 1.2640001 1.6147633e-38 2278 1
0.35656843 0.024798481 1.2640001 1.6147633e-38 2279 1
0.36895183 0.030062515 1.2645715 1.6147633e-38 2280 1
0.3840152 0.032196715 1.2647272 1.6147633e-38 2281 1
0.42868423 0.033988409 1.2640001 1.6147633e-38 2282 1
0.44833305 0.036859509 1.2640001 1.6147633e-38 2283 1
0.47598633 0.02383543 1.2640001 1.6147633e-38 2284 1
0.49211758 0.027670875 1.2653102 1.6147633e-38 2285 1
0.50953305 0.032553062 1.2640799 1.6147633e-38 2286 1
0.52752364 0.031641345 1.2650369 1.6147633e-38 2287 1
0.54833525 0.036114287 1.2640001 1.6147633e-38 2288 1
-0.40837142 0.040636826 1.2757777 1.6147633e-38 2289 1
-0.39601478 0.040087145 1.2755001 1.6147633e-38 2290 1
-0.35150862 0.041741431 1.2704999 1.6147633e-38 2291 1
-0.26326096 0.042266667 1.268 1.6147633e-38 2292 1
-0.25480762 0.042266667 1.268 1.6147633e-38 2293 1
-0.020610476 0.040008571 1.273 1.6147633e-38 2294 1
-0.015699049 0.042266667 1.268 1.6147633e-38 2295 1
0.12760381 0.044540953 1.2640001 1.6147633e-38 2296 1
0.19547649 0.044155102 1.2725714 1.6147633e-38 2297 1
0.2060761 0.044844933 1.2694545 1.6147633e-38 2298 1
0.22443715 0.042233333 1.2670001 1.6147633e-38 2299 1
0.29734096 0.042133335 1.2640001 1.6147633e-38 2300 1
0.30965552 0.042171426 1.265143 1.6147633e-38 2301 1
0.37444893 0.04120012 1.2723749 1.6147633e-38 2302 1
0.38503981 0.042246666 1.2674 1.6147633e-38 2303 1
0.41904381 0.044681903 1.268 1.6147633e-38 2304 1
0.42919779 0.04476469 1.2650769 1.6147633e-38 2305 1
0.45101199 0.043863125 1.2642858 1.6147633e-38 2306 1
0.47338665 0.044681903 1.268 1.6147633e-38 2307 1
0.49958095 0.042133335 1.2640001 1.6147633e-38 2308 1
0.51205677 0.043884333 1.2640001 1.6147633e-38 2309 1
0.53133833 0.044157717 1.2667998 1.6147633e-38 2310 1
0.54222095 0.042266667 1.268 1.6147633e-38 2311 1
-0.71237051 -0.56207621 1.2830001 1.6147633e-38 2312 1
-0.72612572 -0.55055267 1.2957143 1.6147633e-38 2313 1
-0.71262443 -0.54323637 1.2923636 1.6147633e-38 2314 1
-0.72226143 -0.53556275 1.2880001 1.6147633e-38 2315 1
-0.71383452 -0.53034449 1.2914178 1.6147633e-38 2316 1
-0.72137904 -0.50438887 1.2970001 1.6147633e-38 2317 1
-0.71529847 -0.51183951 1.2938951 1.6147633e-38 2318 1
-0.72005343 -0.49557334 1.2880001 1.6147633e-38 2319 1
-0.71223503 -0.48849645 1.2892309 1.6147633e-38 2320 1
-0.72214574 -0.47043338 1.2830001 1.6147633e-38 2321 1
-0.71086419 -0.46942878 1.2881503 1.6147633e-38 2322 1
-0.7201438 -0.44098002 1.2970001 1.6147633e-38 2323 1
-0.7148056 -0.45080057 1.2913337 1.6147633e-38 2324 1
-0.72005343 -0.42565337 1.2880001 1.6147633e-38 2325 1
-0.71612912 -0.42961618 1.2904289 1.6147633e-38 2326 1
-0.72007602 -0.40856314 1.2902501 1.6147633e-38 2327 1
-0.71540403 -0.41015154 1.2886908 1.6147633e-38 2328 1
-0.7201438 -0.39774668 1.2970001 1.6147633e-38 2329 1
-0.71353233 -0.38957492 1.2880479 1.6147633e-38 2330 1
-0.71379584 -0.36887321 1.2867932 1.6147633e-38 2331 1
-0.72097594 -0.35357973 1.2884285 1.6147633e-38 2332 1
-0.71678925 -0.35007012 1.2891877 1.6147633e-38 2333 1
-0.71473837 -0.32863364 1.2911037 1.6147633e-38 2334 1
-0.72333634 -0.30997449 1.2864616 1.6147633e-38 2335 1
-0.71477228 -0.31016612 1.2928367 1.6147633e-38 2336 1
-0.71431029 -0.2910628 1.2886761 1.6147633e-38 2337 1
-0.72068936 -0.27218026 1.2902501 1.6147633e-38 2338 1
-0.71449745 -0.27608433 1.2892001 1.6147633e-38 2339 1
-0.72161657 -0.25172701 1.2893335 1.6147633e-38 2340 1
-0.71250951 -0.24675429 1.289 1.6147633e-38 2341 1
-0.7260015 -0.23016335 1.2855 1.6147633e-38 2342 1
-0.71315974 -0.23241431 1.28775 1.6147633e-38 2343 1
-0.72137904 -0.19022667 1.2970001 1.6147633e-38 2344 1
-0.71328926 -0.18856232 1.2940588 1.6147633e-38 2345 1
-0.72209424 -0.14995703 1.2891428 1.6147633e-38 2346 1
-0.71506757 -0.14520462 1.2892632 1.6147633e-38 2347 1
-0.68661076 -0.14465114 1.2896924 1.6147633e-38 2348 1
-0.67834669 -0.14229333 1.2880001 1.6147633e-38 2349 1
-0.71504068 -0.13035777 1.2893424 1.6147633e-38 2350 1
-0.68593544 -0.13210669 1.2912502 1.6147633e-38 2351 1
-0.6777733 -0.12678207 1.2885 1.6147633e-38 2352 1
-0.70932418 -0.11883271 1.2863334 1.6147633e-38 2353 1
-0.6806162 -0.1198181 1.2970001 1.6147633e-38 2354 1
-0.67691052 -0.1198181 1.2970001 1.6147633e-38 2355 1
0.53552383 -0.10612317 1.2906667 1.6147633e-38 2356 1
0.54264003 -0.10828191 1.2919999 1.6147633e-38 2357 1
0.57203561 -0.02248889 1.2880001 1.6147633e-38 2358 1
-0.41056001 0.03787905 1.2830001 1.6147633e-38 2359 1
-0.40884933 0.041789152 1.2830001 1.6147633e-38 2360 1
-0.39711908 0.042766672 1.2830001 1.6147633e-38 2361 1
0.37476572 0.044638097 1.2865715 1.6147633e-38 2362 1
0.38367814 0.045210481 1.2830001 1.6147633e-38 2363 1
-0.72044003 -0.56172001 1.302 1.6147633e-38 2364 1
-0.71287501 -0.5609293 1.3132499 1.6147633e-38 2365 1
-0.71404427 -0.55249459 1.3065833 1.6147633e-38 2366 1
-0.71502912 -0.52433223 1.3148572 1.6147633e-38 2367 1
-0.71006262 -0.50922424 1.3087345 1.6147633e-38 2368 1
-0.71189451 -0.4949379 1.3096471 1.6147633e-38 2369 1
-0.71302027 -0.46573037 1.3087999 1.6147633e-38 2370 1
-0.72044003 -0.44268003 1.302 1.6147633e-38 2371 1
-0.71322656 -0.44949162 1.3079262 1.6147633e-38 2372 1
-0.71312696 -0.43158367 1.3093333 1.6147633e-38 2373 1
-0.71447742 -0.40827245 1.3094192 1.6147633e-38 2374 1
-0.72121429 -0.39008287 1.317 1.6147633e-38 2375 1
-0.71256447 -0.39284012 1.308364 1.6147633e-38 2376 1
-0.72044003 -0.36084002 1.302 1.6147633e-38 2377 1
-0.71363872 -0.36953115 1.3062227 1.6147633e-38 2378 1
-0.72078174 -0.34575358 1.3082501 1.6147633e-38 2379 1
-0.71317613 -0.35024181 1.3081365 1.6147633e-38 2380 1
-0.72159523 -0.33924332 1.312 1.6147633e-38 2381 1
-0.71241891 -0.32998425 1.3077813 1.6147633e-38 2382 1
-0.70909339 -0.30976248 1.3059705 1.6147633e-38 2383 1
-0.72121429 -0.28346857 1.317 1.6147633e-38 2384 1
-0.71339518 -0.29217258 1.3087649 1.6147633e-38 2385 1
-0.72515076 -0.26752734 1.3124543 1.6147633e-38 2386 1
-0.71793574 -0.27152222 1.3125557 1.6147633e-38 2387 1
-0.72433716 -0.2570343 1.302 1.6147633e-38 2388 1
-0.71352088 -0.25225976 1.3114829 1.6147633e-38 2389 1
-0.72196192 -0.20165142 1.307 1.6147633e-38 2390 1
-0.71658325 -0.20191309 1.3098572 1.6147633e-38 2391 1
-0.72177237 -0.19658412 1.3036667 1.6147633e-38 2392 1
-0.71525025 -0.19387625 1.309353 1.6147633e-38 2393 1
-0.72197086 -0.14406031 1.3153334 1.6147633e-38 2394 1
-0.70911205 -0.14345375 1.3098572 1.6147633e-38 2395 1
-0.71552914 -0.13557565 1.3107501 1.6147633e-38 2396 1
-0.68217713 -0.12842858 1.302 1.6147633e-38 2397 1
-0.67828 -0.12648 1.302 1.6147633e-38 2398 1
-0.71384192 -0.5621143 1.3313335 1.6147633e-38 2399 1
-0.72217906 -0.54258287 1.3280001 1.6147633e-38 2400 1
-0.71481007 -0.54861176 1.327911 1.6147633e-38 2401 1
-0.71312308 -0.53153235 1.3293484 1.6147633e-38 2402 1
-0.70836955 -0.51255053 1.3283044 1.6147633e-38 2403 1
-0.7214343 -0.48725143 1.322 1.6147633e-38 2404 1
-0.71565443 -0.48859197 1.3278707 1.6147633e-38 2405 1
-0.71465546 -0.47260681 1.3290384 1.6147633e-38 2406 1
-0.71216327 -0.45347428 1.3268572 1.6147633e-38 2407 1
-0.71369314 -0.42862698 1.3295305 1.6147633e-38 2408 1
-0.7214343 -0.41926286 1.322 1.6147633e-38 2409 1
-0.7131238 -0.41177854 1.3291248 1.6147633e-38 2410 1
-0.7214343 -0.39030474 1.322 1.6147633e-38 2411 1
-0.7143175 -0.38815984 1.3309047 1.6147633e-38 2412 1
-0.71450531 -0.36976284 1.3332417 1.6147633e-38 2413 1
-0.71350861 -0.34839216 1.3297026 1.6147633e-38 2414 1
-0.71413213 -0.33105636 1.3279444 1.6147633e-38 2415 1
-0.71248329 -0.31160179 1.32785 1.6147633e-38 2416 1
-0.71650499 -0.28890225 1.3293748 1.6147633e-38 2417 1
-0.72431666 -0.26932141 1.3230911 1.6147633e-38 2418 1
-0.7155506 -0.26927155 1.3237417 1.6147633e-38 2419 1
-0.71639812 -0.25432763 1.322 1.6147633e-38 2420 1
-0.72306859 -0.22462475 1.325 1.6147633e-38 2421 1
-0.71690178 -0.22134057 1.322 1.6147633e-38 2422 1
-0.72383928 -0.2134542 1.3247273 1.6147633e-38 2423 1
-0.71486151 -0.2087684 1.3266188 1.6147633e-38 2424 1
-0.72197717 -0.18745905 1.33 1.6147633e-38 2425 1
-0.71515924 -0.19295104 1.3304287 1.6147633e-38 2426 1
-0.72252005 -0.17627621 1.3379999 1.6147633e-38 2427 1
-0.71821493 -0.16738889 1.3344706 1.6147633e-38 2428 1
-0.7230081 -0.14825286 1.322 1.6147633e-38 2429 1
-0.71423596 -0.15241389 1.3285176 1.6147633e-38 2430 1
-0.71639812 -0.13471811 1.322 1.6147633e-38 2431 1
-0.72130162 -0.58746839 1.3487273 1.6147633e-38 2432 1
-0.71553338 -0.58924061 1.3523428 1.6147633e-38 2433 1
-0.72084385 -0.57899624 1.3540001 1.6147633e-38 2434 1
-0.71637362 -0.57001609 1.3535141 1.6147633e-38 2435 1
-0.72091722 -0.55395436 1.3590001 1.6147633e-38 2436 1
-0.71619385 -0.55050945 1.3543181 1.6147633e-38 2437 1
-0.71059215 -0.53000885 1.3523932 1.6147633e-38 2438 1
-0.72089273 -0.50415242 1.3573335 1.6147633e-38 2439 1
-0.71372825 -0.5114187 1.3510294 1.6147633e-38 2440 1
-0.72061265 -0.49775311 1.3487501 1.6147633e-38 2441 1
-0.71701247 -0.48853278 1.3528751 1.6147633e-38 2442 1
-0.71492738 -0.46961695 1.3499285 1.6147633e-38 2443 1
-0.72230297 -0.4520143 1.3532858 1.6147633e-38 2444 1
-0.71476656 -0.45383704 1.3558 1.6147633e-38 2445 1
-0.71273255 -0.42592612 1.3481251 1.6147633e-38 2446 1
-0.71368957 -0.41091481 1.3541054 1.6147633e-38 2447 1
-0.70929557 -0.39116329 1.3472747 1.6147633e-38 2448 1
-0.69963908 -0.38243523 1.3430001 1.6147633e-38 2449 1
-0.7201038 -0.37476099 1.3430001 1.6147633e-38 2450 1
-0.7122497 -0.37133902 1.3472123 1.6147633e-38 2451 1
-0.71383089 -0.35113513 1.3483915 1.6147633e-38 2452 1
-0.71582597 -0.33071744 1.3509169 1.6147633e-38 2453 1
-0.7143212 -0.30968785 1.3489997 1.6147633e-38 2454 1
-0.72158605 -0.28305495 1.353 1.6147633e-38 2455 1
-0.71471465 -0.29287004 1.3489397 1.6147633e-38 2456 1
-0.72402346 -0.26895258 1.3590001 1.6147633e-38 2457 1
-0.7149877 -0.20848477 1.3430001 1.6147633e-38 2458 1
-0.72229654 -0.18363468 1.3430002 1.6147633e-38 2459 1
-0.7128346 -0.18784444 1.3473843 1.6147633e-38 2460 1
-0.72074336 -0.17522953 1.3430001 1.6147633e-38 2461 1
-0.71178484 -0.16926652 1.3497925 1.6147633e-38 2462 1
-0.69676858 -0.16440573 1.3556668 1.6147633e-38 2463 1
-0.70693713 -0.15873949 1.3526669 1.6147633e-38 2464 1
-0.69762003 -0.15919715 1.3590001 1.6147633e-38 2465 1
-0.70984703 -0.58742321 1.3653706 1.6147633e-38 2466 1
-0.71213973 -0.5701223 1.3671222 1.6147633e-38 2467 1
-0.7115466 -0.55175585 1.3660344 1.6147633e-38 2468 1
-0.71062356 -0.52958715 1.369643 1.6147633e-38 2469 1
-0.72151667 -0.50402141 1.3675001 1.6147633e-38 2470 1
-0.71480632 -0.50882798 1.3699374 1.6147633e-38 2471 1
-0.71549767 -0.49040189 1.3718857 1.6147633e-38 2472 1
-0.71150452 -0.47003037 1.3695146 1.6147633e-38 2473 1
-0.72312915 -0.44935301 1.3656249 1.6147633e-38 2474 1
-0.71337271 -0.45145944 1.3698236 1.6147633e-38 2475 1
-0.71520865 -0.43054941 1.3689313 1.6147633e-38 2476 1
-0.71256948 -0.40945137 1.3699168 1.6147633e-38 2477 1
-0.71238279 -0.39297751 1.3731251 1.6147633e-38 2478 1
-0.71622515 -0.3703005 1.3706666 1.6147633e-38 2479 1
-0.72149998 -0.34449998 1.3650001 1.6147633e-38 2480 1
-0.71495712 -0.34653288 1.3694828 1.6147633e-38 2481 1
-0.7124663 -0.33329272 1.3684212 1.6147633e-38 2482 1
-0.71945143 -0.30534095 1.376 1.6147633e-38 2483 1
-0.72511709 -0.28326061 1.3706249 1.6147633e-38 2484 1
-0.71735048 -0.29262477 1.368 1.6147633e-38 2485 1
-0.7259798 -0.2756691 1.3685625 1.6147633e-38 2486 1
-0.71892387 -0.27400002 1.3700001 1.6147633e-38 2487 1
-0.71183783 -0.17068975 1.3680834 1.6147633e-38 2488 1
-0.70960414 -0.15754695 1.3671428 1.6147633e-38 2489 1
-0.72030288 -0.56186289 1.3980001 1.6147633e-38 2490 1
-0.71439576 -0.57340789 1.38975 1.6147633e-38 2491 1
-0.71550405 -0.54918855 1.3905003 1.6147633e-38 2492 1
-0.71051139 -0.52907956 1.3931875 1.6147633e-38 2493 1
-0.72030288 -0.51393145 1.3980001 1.6147633e-38 2494 1
-0.71454602 -0.51045895 1.3864403 1.6147633e-38 2495 1
-0.71323931 -0.49283037 1.3918571 1.6147633e-38 2496 1
-0.71417409 -0.47249469 1.3928001 1.6147633e-38 2497 1
-0.72118425 -0.44726241 1.3895001 1.6147633e-38 2498 1
-0.71566975 -0.44702768 1.3890386 1.6147633e-38 2499 1
-0.71617687 -0.42905653 1.390808 1.6147633e-38 2500 1
-0.71396953 -0.41107079 1.3897879 1.6147633e-38 2501 1
-0.72256964 -0.39387494 1.3966666 1.6147633e-38 2502 1
-0.71711779 -0.38723779 1.3870716 1.6147633e-38 2503 1
-0.72288889 -0.3642185 1.3846 1.6147633e-38 2504 1
-0.71746463 -0.36929503 1.3917106 1.6147633e-38 2505 1
-0.72338092 -0.35905999 1.381 1.6147633e-38 2506 1
-0.71522146 -0.35164937 1.3911073 1.6147633e-38 2507 1
-0.72631341 -0.32540885 1.3905716 1.6147633e-38 2508 1
-0.71705121 -0.3310484 1.390417 1.6147633e-38 2509 1
-0.72257584 -0.31288096 1.3891668 1.6147633e-38 2510 1
-0.71868277 -0.30963942 1.3903753 1.6147633e-38 2511 1
-0.72240627 -0.28855342 1.3888848 1.6147633e-38 2512 1
-0.71907878 -0.2926172 1.3893077 1.6147633e-38 2513 1
-0.72336888 -0.27066302 1.3885835 1.6147633e-38 2514 1
-0.71988535 -0.26555735 1.3900001 1.6147633e-38 2515 1
-0.72217786 -0.18251929 1.3837501 1.6147633e-38 2516 1
-0.71943527 -0.18150286 1.381 1.6147633e-38 2517 1
-0.72251427 -0.17897144 1.3920001 1.6147633e-38 2518 1
-0.71943527 -0.17755716 1.381 1.6147633e-38 2519 1
-0.71562386 -0.62407023 1.4137501 1.6147633e-38 2520 1
-0.72299767 -0.60710239 1.4150001 1.6147633e-38 2521 1
-0.71353084 -0.60702729 1.4120001 1.6147633e-38 2522 1
-0.72406518 -0.59018064 1.4128127 1.6147633e-38 2523 1
-0.71401489 -0.59263003 1.4117144 1.6147633e-38 2524 1
-0.72280949 -0.57444632 1.4086001 1.6147633e-38 2525 1
-0.7158345 -0.56689936 1.4102001 1.6147633e-38 2526 1
-0.7134558 -0.55085915 1.41 1.6147633e-38 2527 1
-0.71585482 -0.52540433 1.4082501 1.6147633e-38 2528 1
-0.72091722 -0.51723999 1.4070001 1.6147633e-38 2529 1
-0.71517241 -0.50901711 1.4091429 1.6147633e-38 2530 1
-0.72085148 -0.48786101 1.4060001 1.6147633e-38 2531 1
-0.71394742 -0.48900995 1.4112583 1.6147633e-38 2532 1
-0.72072005 -0.46265143 1.404 1.6147633e-38 2533 1
-0.71471465 -0.46977624 1.4091053 1.6147633e-38 2534 1
-0.71546447 -0.44977877 1.4103228 1.6147633e-38 2535 1
-0.72106832 -0.43783972 1.4116668 1.6147633e-38 2536 1
-0.71573597 -0.42926231 1.4100001 1.6147633e-38 2537 1
-0.72111434 -0.40151432 1.4100001 1.6147633e-38 2538 1
-0.71346128 -0.40894556 1.4111084 1.6147633e-38 2539 1
-0.72204483 -0.39379376 1.4089999 1.6147633e-38 2540 1
-0.71666855 -0.39071992 1.4120388 1.6147633e-38 2541 1
-0.71618569 -0.37001848 1.4080665 1.6147633e-38 2542 1
-0.72097617 -0.34903336 1.4150001 1.6147633e-38 2543 1
-0.7168982 -0.35592848 1.411625 1.6147633e-38 2544 1
-0.72176665 -0.32793045 1.4123334 1.6147633e-38 2545 1
-0.71823716 -0.33768004 1.4070001 1.6147633e-38 2546 1
-0.72093934 -0.30902129 1.4100001 1.6147633e-38 2547 1
-0.71826345 -0.30924115 1.4118 1.6147633e-38 2548 1
-0.72208661 -0.28901947 1.4105 1.6147633e-38 2549 1
-0.71828103 -0.29647622 1.4150001 1.6147633e-38 2550 1
-0.7231949 -0.27249071 1.4105835 1.6147633e-38 2551 1
-0.71738261 -0.26593018 1.4150001 1.6147633e-38 2552 1
-0.65494287 -0.2614381 1.4150001 1.6147633e-38 2553 1
-0.72196358 -0.24468891 1.4116668 1.6147633e-38 2554 1
-0.71356213 -0.62782204 1.4308573 1.6147633e-38 2555 1
-0.72560716 -0.6143353 1.4247501 1.6147633e-38 2556 1
-0.71324003 -0.61087883 1.4273871 1.6147633e-38 2557 1
-0.72200334 -0.58396339 1.4210001 1.6147633e-38 2558 1
-0.71525413 -0.58718503 1.427429 1.6147633e-38 2559 1
-0.71232104 -0.57201195 1.4261725 1.6147633e-38 2560 1
-0.72224098 -0.54133815 1.439 1.6147633e-38 2561 1
-0.71402282 -0.55020672 1.4313201 1.6147633e-38 2562 1
-0.72191256 -0.52944368 1.4323335 1.6147633e-38 2563 1
-0.71819401 -0.52846611 1.4326841 1.6147633e-38 2564 1
-0.7132917 -0.51047719 1.4319088 1.6147633e-38 2565 1
-0.71205097 -0.49250945 1.4284481 1.6147633e-38 2566 1
-0.72224098 -0.47007331 1.439 1.6147633e-38 2567 1
-0.71579975 -0.46961018 1.4327501 1.6147633e-38 2568 1
-0.72224098 -0.44266379 1.439 1.6147633e-38 2569 1
-0.71503657 -0.45073047 1.4320322 1.6147633e-38 2570 1
-0.72195911 -0.4380886 1.4330001 1.6147633e-38 2571 1
-0.71713716 -0.43229443 1.4261429 1.6147633e-38 2572 1
-0.7150864 -0.40980616 1.432 1.6147633e-38 2573 1
-0.72184229 -0.38204923 1.4310001 1.6147633e-38 2574 1
-0.7150718 -0.39291579 1.4286666 1.6147633e-38 2575 1
-0.72224098 -0.37825143 1.439 1.6147633e-38 2576 1
-0.71694195 -0.36976168 1.4261427 1.6147633e-38 2577 1
-0.721977 -0.34619454 1.4270002 1.6147633e-38 2578 1
-0.71814543 -0.35089919 1.4289285 1.6147633e-38 2579 1
-0.72188085 -0.33138183 1.4293479 1.6147633e-38 2580 1
-0.71883166 -0.33009738 1.43225 1.6147633e-38 2581 1
-0.72132671 -0.31803337 1.4210001 1.6147633e-38 2582 1
-0.71540934 -0.30760878 1.4273247 1.6147633e-38 2583 1
-0.72228813 -0.28587881 1.4290001 1.6147633e-38 2584 1
-0.7138446 -0.29303205 1.4318647 1.6147633e-38 2585 1
-0.72232741 -0.27084365 1.4315001 1.6147633e-38 2586 1
-0.71028233 -0.26936945 1.4339373 1.6147633e-38 2587 1
-0.69416231 -0.26993382 1.4315003 1.6147633e-38 2588 1
-0.65641999 -0.26365525 1.427 1.6147633e-38 2589 1
-0.72301525 -0.24830592 1.4284285 1.6147633e-38 2590 1
-0.71885276 -0.25009903 1.4335713 1.6147633e-38 2591 1
-0.66425455 -0.25282243 1.4292501 1.6147633e-38 2592 1
-0.65737623 -0.25528252 1.4237275 1.6147633e-38 2593 1
-0.72487158 -0.22936739 1.4315716 1.6147633e-38 2594 1
-0.71614456 -0.23371692 1.433 1.6147633e-38 2595 1
-0.72468859 -0.21426763 1.4330001 1.6147633e-38 2596 1
-0.71754706 -0.21582957 1.4227145 1.6147633e-38 2597 1
-0.71363717 -0.64019716 1.455 1.6147633e-38 2598 1
-0.72066861 -0.62069142 1.4580001 1.6147633e-38 2599 1
-0.71584141 -0.63004959 1.45525 1.6147633e-38 2600 1
-0.72066861 -0.61791432 1.4580001 1.6147633e-38 2601 1
-0.7147584 -0.60737133 1.4499999 1.6147633e-38 2602 1
-0.71690375 -0.59203547 1.45075 1.6147633e-38 2603 1
-0.72066861 -0.56376004 1.4580001 1.6147633e-38 2604 1
-0.72270006 -0.55034715 1.4565001 1.6147633e-38 2605 1
-0.71974766 -0.54084283 1.4450001 1.6147633e-38 2606 1
-0.7205686 -0.5348829 1.455 1.6147633e-38 2607 1
-0.71767849 -0.52800989 1.4501112 1.6147633e-38 2608 1
-0.71385479 -0.51216036 1.4523635 1.6147633e-38 2609 1
-0.72344577 -0.48183429 1.4580001 1.6147633e-38 2610 1
-0.71377927 -0.48995659 1.4518234 1.6147633e-38 2611 1
-0.72344577 -0.47766858 1.4580001 1.6147633e-38 2612 1
-0.71378416 -0.46423492 1.4450001 1.6147633e-38 2613 1
-0.72163445 -0.4445653 1.4533637 1.6147633e-38 2614 1
-0.7156136 -0.44340914 1.4560001 1.6147633e-38 2615 1
-0.72124481 -0.4309251 1.4538888 1.6147633e-38 2616 1
-0.71635056 -0.43393388 1.4525833 1.6147633e-38 2617 1
-0.72054863 -0.41277257 1.4543999 1.6147633e-38 2618 1
-0.71854043 -0.40781394 1.451625 1.6147633e-38 2619 1
-0.72358161 -0.38983884 1.4515356 1.6147633e-38 2620 1
-0.71727955 -0.39109659 1.4562 1.6147633e-38 2621 1
-0.72160023 -0.37049866 1.4556875 1.6147633e-38 2622 1
-0.7192173 -0.37233704 1.4487143 1.6147633e-38 2623 1
-0.72094077 -0.35492498 1.45575 1.6147633e-38 2624 1
-0.71832466 -0.35003212 1.4499999 1.6147633e-38 2625 1
-0.72210693 -0.33117181 1.4539165 1.6147633e-38 2626 1
-0.71768725 -0.33694285 1.4464 1.6147633e-38 2627 1
-0.72337532 -0.31754288 1.456 1.6147633e-38 2628 1
-0.71674287 -0.30755192 1.4515001 1.6147633e-38 2629 1
-0.72328788 -0.28528428 1.4498999 1.6147633e-38 2630 1
-0.7130838 -0.2890645 1.4495713 1.6147633e-38 2631 1
-0.72240394 -0.27036557 1.4485 1.6147633e-38 2632 1
-0.71535009 -0.26829138 1.448516 1.6147633e-38 2633 1
-0.72216451 -0.25634098 1.4566667 1.6147633e-38 2634 1
-0.71685088 -0.25009087 1.45275 1.6147633e-38 2635 1
-0.66763866 -0.24821343 1.4531765 1.6147633e-38 2636 1
-0.65957147 -0.24670286 1.4580001 1.6147633e-38 2637 1
0.077760004 -0.24994287 1.4580001 1.6147633e-38 2638 1
-0.72249997 -0.22982381 1.4450001 1.6147633e-38 2639 1
-0.71974766 -0.22982381 1.4450001 1.6147633e-38 2640 1
-0.66327429 -0.23652001 1.4580001 1.6147633e-38 2641 1
-0.65957147 -0.23605716 1.4580001 1.6147633e-38 2642 1
-0.71171778 -0.18576686 1.4555999 1.6147633e-38 2643 1
-0.58629757 -0.17143518 1.4580001 1.6147633e-38 2644 1
-0.71880674 -0.64425337 1.4770001 1.6147633e-38 2645 1
-0.71694463 -0.62762451 1.4708234 1.6147633e-38 2646 1
-0.72131002 -0.6020267 1.4735001 1.6147633e-38 2647 1
-0.7167328 -0.61129838 1.4695554 1.6147633e-38 2648 1
-0.72324121 -0.58874601 1.4749373 1.6147633e-38 2649 1
-0.7231425 -0.57198948 1.4709498 1.6147633e-38 2650 1
-0.71719944 -0.56644064 1.473182 1.6147633e-38 2651 1
-0.72224009 -0.55074292 1.4640001 1.6147633e-38 2652 1
-0.71637553 -0.54857779 1.4694092 1.6147633e-38 2653 1
-0.7210393 -0.53306836 1.4672501 1.6147633e-38 2654 1
-0.71183342 -0.53028673 1.4677085 1.6147633e-38 2655 1
-0.69853717 -0.53122288 1.4640001 1.6147633e-38 2656 1
-0.72162002 -0.51484007 1.4770001 1.6147633e-38 2657 1
-0.71233696 -0.50548369 1.4709166 1.6147633e-38 2658 1
-0.72309923 -0.4819473 1.4678751 1.6147633e-38 2659 1
-0.71309978 -0.49083593 1.4683158 1.6147633e-38 2660 1
-0.72373176 -0.46909177 1.4716154 1.6147633e-38 2661 1
-0.71800166 -0.46920669 1.4717501 1.6147633e-38 2662 1
-0.7228114 -0.45717716 1.4680001 1.6147633e-38 2663 1
-0.7137143 -0.44804442 1.4655833 1.6147633e-38 2664 1
-0.72091186 -0.42640084 1.4665716 1.6147633e-38 2665 1
-0.71640605 -0.42952374 1.4702401 1.6147633e-38 2666 1
-0.72089714 -0.41606483 1.4660001 1.6147633e-38 2667 1
-0.71753037 -0.41009793 1.469 1.6147633e-38 2668 1
-0.72093827 -0.38772458 1.4676001 1.6147633e-38 2669 1
-0.7172184 -0.39032573 1.4680001 1.6147633e-38 2670 1
-0.72130144 -0.36909348 1.4698666 1.6147633e-38 2671 1
-0.71717525 -0.37743428 1.4660001 1.6147633e-38 2672 1
-0.72084576 -0.34299433 1.4640001 1.6147633e-38 2673 1
-0.7183817 -0.34499323 1.4709092 1.6147633e-38 2674 1
-0.72477353 -0.32969326 1.47 1.6147633e-38 2675 1
-0.71810478 -0.33741143 1.4660001 1.6147633e-38 2676 1
-0.72307301 -0.31449103 1.4709166 1.6147633e-38 2677 1
-0.71665472 -0.30897203 1.4715455 1.6147633e-38 2678 1
-0.71248007 -0.29001147 1.4640001 1.6147633e-38 2679 1
-0.70825785 -0.26039937 1.4726667 1.6147633e-38 2680 1
-0.66254002 -0.26023334 1.4770001 1.6147633e-38 2681 1
-0.65972674 -0.26023334 1.4770001 1.6147633e-38 2682 1
-0.60064673 -0.26164001 1.4770001 1.6147633e-38 2683 1
-0.59558272 -0.26135868 1.4770001 1.6147633e-38 2684 1
-0.71152222 -0.25133383 1.4714003 1.6147633e-38 2685 1
-0.69242567 -0.2487985 1.4699447 1.6147633e-38 2686 1
-0.66960078 -0.24551792 1.4665221 1.6147633e-38 2687 1
-0.65912682 -0.25109747 1.4714999 1.6147633e-38 2688 1
-0.60064673 -0.25273111 1.4770001 1.6147633e-38 2689 1
-0.59061503 -0.24953312 1.4739734 1.6147633e-38 2690 1
-0.57006431 -0.24886233 1.4708331 1.6147633e-38 2691 1
-0.55126196 -0.24663258 1.4750004 1.6147633e-38 2692 1
-0.53466338 -0.24371113 1.4735001 1.6147633e-38 2693 1
-0.50640005 -0.24054001 1.4770001 1.6147633e-38 2694 1
-0.48828924 -0.24370502 1.4769999 1.6147633e-38 2695 1
-0.47886953 -0.24656859 1.4770001 1.6147633e-38 2696 1
-0.44412306 -0.24770123 1.4770001 1.6147633e-38 2697 1
-0.42872605 -0.25238636 1.4749998 1.6147633e-38 2698 1
-0.40785515 -0.24707353 1.4733716 1.6147633e-38 2699 1
-0.39535046 -0.24831627 1.4745651 1.6147633e-38 2700 1
-0.36292002 -0.24054001 1.4770001 1.6147633e-38 2701 1
-0.34744668 -0.24335335 1.4770001 1.6147633e-38 2702 1
-0.33025405 -0.24647924 1.4770004 1.6147633e-38 2703 1
-0.31931335 -0.24616668 1.4770001 1.6147633e-38 2704 1
-0.29144803 -0.24603271 1.4769998 1.6147633e-38 2705 1
-0.26907524 -0.24174573 1.4770001 1.6147633e-38 2706 1
-0.24830835 -0.24478918 1.4761249 1.6147633e-38 2707 1
-0.23046666 -0.24478388 1.4733795 1.6147633e-38 2708 1
-0.21165839 -0.24715865 1.4742 1.6147633e-38 2709 1
-0.19060335 -0.24405667 1.4770001 1.6147633e-38 2710 1
-0.17414534 -0.24757335 1.4770001 1.6147633e-38 2711 1
-0.14207335 -0.24054001 1.4770001 1.6147633e-38 2712 1
-0.12786601 -0.24461934 1.4769998 1.6147633e-38 2713 1
-0.11112667 -0.24671121 1.4770002 1.6147633e-38 2714 1
-0.087537959 -0.24551746 1.477 1.6147633e-38 2715 1
-0.06983491 -0.24241842 1.4753528 1.6147633e-38 2716 1
-0.048647918 -0.24545097 1.472077 1.6147633e-38 2717 1
-0.036573336 -0.24335335 1.4770001 1.6147633e-38 2718 1
0.048736863 -0.24484275 1.4769999 1.6147633e-38 2719 1
0.077842228 -0.24658127 1.4683334 1.6147633e-38 2720 1
0.084654279 -0.24876666 1.4710001 1.6147633e-38 2721 1
0.19430616 -0.24652356 1.4726924 1.6147633e-38 2722 1
0.20302668 -0.24640001 1.4760001 1.6147633e-38 2723 1
-0.70659053 -0.22749081 1.4766665 1.6147633e-38 2724 1
-0.69113898 -0.23033945 1.4754801 1.6147633e-38 2725 1
-0.6752767 -0.23338941 1.47105 1.6147633e-38 2726 1
-0.6594972 -0.23842287 1.4640001 1.6147633e-38 2727 1
-0.60614812 -0.22643761 1.47532 1.6147633e-38 2728 1
-0.59126759 -0.23178943 1.4705837 1.6147633e-38 2729 1
-0.56855464 -0.23302001 1.4763634 1.6147633e-38 2730 1
-0.54776663 -0.23315522 1.4709997 1.6147633e-38 2731 1
-0.53183317 -0.22973551 1.4748842 1.6147633e-38 2732 1
-0.50965178 -0.22953352 1.476622 1.6147633e-38 2733 1
-0.49176854 -0.22933559 1.4753264 1.6147633e-38 2734 1
-0.46654448 -0.22272223 1.4770001 1.6147633e-38 2735 1
-0.44760135 -0.22788 1.4770001 1.6147633e-38 2736 1
-0.43747339 -0.23632002 1.4770001 1.6147633e-38 2737 1
-0.40320185 -0.23363456 1.4770001 1.6147633e-38 2738 1
-0.39043027 -0.22894083 1.4747809 1.6147633e-38 2739 1
-0.3695206 -0.22847396 1.472844 1.6147633e-38 2740 1
-0.35220301 -0.22943585 1.4764004 1.6147633e-38 2741 1
-0.3316921 -0.23378801 1.477 1.6147633e-38 2742 1
-0.31690192 -0.22607145 1.4770001 1.6147633e-38 2743 1
-0.28274 -0.23772669 1.4770001 1.6147633e-38 2744 1
-0.27852002 -0.23772669 1.4770001 1.6147633e-38 2745 1
-0.24054001 -0.23632002 1.4770001 1.6147633e-38 2746 1
-0.22837649 -0.23127256 1.4770002 1.6147633e-38 2747 1
-0.21236585 -0.23120022 1.4761518 1.6147633e-38 2748 1
-0.18427335 -0.23350668 1.4770001 1.6147633e-38 2749 1
-0.17302001 -0.22900534 1.4770001 1.6147633e-38 2750 1
-0.14309639 -0.23082122 1.4770001 1.6147633e-38 2751 1
-0.13274914 -0.23113544 1.4770004 1.6147633e-38 2752 1
-0.10972 -0.22600444 1.4770001 1.6147633e-38 2753 1
-0.085494071 -0.22491039 1.4770001 1.6147633e-38 2754 1
-0.068246171 -0.22799352 1.4738338 1.6147633e-38 2755 1
-0.049880903 -0.23077825 1.4731865 1.6147633e-38 2756 1
-0.030859686 -0.22926921 1.4759997 1.6147633e-38 2757 1
0.011956668 -0.22155002 1.4770001 1.6147633e-38 2758 1
0.029539999 -0.22394136 1.4769998 1.6147633e-38 2759 1
0.053777952 -0.23210001 1.477 1.6147633e-38 2760 1
0.060486671 -0.22928667 1.4770001 1.6147633e-38 2761 1
0.20959334 -0.2208467 1.4770001 1.6147633e-38 2762 1
0.48952001 -0.22506668 1.4770001 1.6147633e-38 2763 1
-0.71022254 -0.20771523 1.4762003 1.6147633e-38 2764 1
-0.6892091 -0.20928206 1.4706749 1.6147633e-38 2765 1
-0.67796397 -0.21020003 1.4714001 1.6147633e-38 2766 1
-0.60064673 -0.21662667 1.4770001 1.6147633e-38 2767 1
-0.59642673 -0.21662667 1.4770001 1.6147633e-38 2768 1
-0.56126004 -0.20678002 1.4770001 1.6147633e-38 2769 1
-0.55232364 -0.20611803 1.4769999 1.6147633e-38 2770 1
-0.52617615 -0.21389607 1.4769999 1.6147633e-38 2771 1
-0.51050162 -0.21012266 1.4761924 1.6147633e-38 2772 1
-0.49780375 -0.21396963 1.4770001 1.6147633e-38 2773 1
-0.4693802 -0.20850006 1.4727178 1.6147633e-38 2774 1
-0.45005059 -0.21020022 1.4770001 1.6147633e-38 2775 1
-0.43395668 -0.211 1.4770001 1.6147633e-38 2776 1
-0.38935331 -0.21474181 1.4763634 1.6147633e-38 2777 1
-0.37017438 -0.21527892 1.4724841 1.6147633e-38 2778 1
-0.35094815 -0.21086973 1.4753846 1.6147633e-38 2779 1
-0.33384892 -0.20209114 1.4770001 1.6147633e-38 2780 1
-0.31509334 -0.21803334 1.4770001 1.6147633e-38 2781 1
-0.26586005 -0.20858856 1.477 1.6147633e-38 2782 1
-0.25742 -0.21100001 1.4770001 1.6147633e-38 2783 1
-0.22366001 -0.21240665 1.4769999 1.6147633e-38 2784 1
-0.21803334 -0.21240668 1.4770001 1.6147633e-38 2785 1
-0.16692446 -0.21709555 1.4770001 1.6147633e-38 2786 1
-0.14207335 -0.21803334 1.4770001 1.6147633e-38 2787 1
-0.13644667 -0.21803336 1.4770001 1.6147633e-38 2788 1
-0.10746305 -0.20966308 1.4749583 1.6147633e-38 2789 1
-0.089524284 -0.21029665 1.4770001 1.6147633e-38 2790 1
-0.068897247 -0.20951068 1.4764287 1.6147633e-38 2791 1
-0.048766825 -0.21093865 1.4745586 1.6147633e-38 2792 1
-0.032995559 -0.21308492 1.4731112 1.6147633e-38 2793 1
-0.0014066667 -0.20818669 1.4770001 1.6147633e-38 2794 1
0.0060486668 -0.21339133 1.4769998 1.6147633e-38 2795 1
0.030946668 -0.21803334 1.4770001 1.6147633e-38 2796 1
0.073146671 -0.20209114 1.4770001 1.6147633e-38 2797 1
0.21200477 -0.20919144 1.4770001 1.6147633e-38 2798 1
-0.72162002 -0.19552667 1.4770001 1.6147633e-38 2799 1
-0.71090776 -0.1912329 1.4745173 1.6147633e-38 2800 1
-0.69270551 -0.19233377 1.4728823 1.6147633e-38 2801 1
-0.6024754 -0.18239087 1.4664001 1.6147633e-38 2802 1
-0.58825469 -0.18280135 1.4742001 1.6147633e-38 2803 1
-0.56870717 -0.18659019 1.4769999 1.6147633e-38 2804 1
-0.55469555 -0.1913067 1.4770001 1.6147633e-38 2805 1
-0.52867228 -0.18380445 1.4770001 1.6147633e-38 2806 1
-0.51171416 -0.19396369 1.4769998 1.6147633e-38 2807 1
-0.47320271 -0.19721469 1.4770001 1.6147633e-38 2808 1
-0.4419747 -0.19440134 1.4770001 1.6147633e-38 2809 1
-0.43747339 -0.19177556 1.4770001 1.6147633e-38 2810 1
-0.34575874 -0.19233821 1.4769999 1.6147633e-38 2811 1
-0.33042952 -0.19238344 1.4751937 1.6147633e-38 2812 1
-0.31650001 -0.18691084 1.4769999 1.6147633e-38 2813 1
-0.27586299 -0.19240075 1.4770001 1.6147633e-38 2814 1
-0.10793047 -0.18978046 1.4745001 1.6147633e-38 2815 1
-0.093069784 -0.18624577 1.4732666 1.6147633e-38 2816 1
-0.066113345 -0.19834001 1.4770001 1.6147633e-38 2817 1
-0.056266669 -0.19834001 1.4770001 1.6147633e-38 2818 1
0.073146679 -0.19608936 1.4770001 1.6147633e-38 2819 1
0.13082001 -0.18146002 1.4770001 1.6147633e-38 2820 1
0.19311523 -0.18728761 1.477 1.6147633e-38 2821 1
0.20976381 -0.19015573 1.4770002 1.6147633e-38 2822 1
0.2263847 -0.19084822 1.4753528 1.6147633e-38 2823 1
0.25601333 -0.18286669 1.4770001 1.6147633e-38 2824 1
0.26164004 -0.18990003 1.4770001 1.6147633e-38 2825 1
-0.68954802 -0.163736 1.4770001 1.6147633e-38 2826 1
-0.60278147 -0.17551571 1.4685 1.6147633e-38 2827 1
-0.58818239 -0.17027716 1.4655 1.6147633e-38 2828 1
-0.57160664 -0.17280363 1.4686762 1.6147633e-38 2829 1
-0.54872471 -0.1717075 1.4762825 1.6147633e-38 2830 1
-0.53096634 -0.16966456 1.4746102 1.6147633e-38 2831 1
-0.50909197 -0.1690288 1.4722278 1.6147633e-38 2832 1
