# .PCD v0.7 - Point Cloud Data file format
VERSION 0.7
FIELDS x y z rgb normal_x normal_y normal_z curvature id confidence
SIZE 4 4 4 4 4 4 4 4 4 4
TYPE F F F F F F F F I F
COUNT 1 1 1 1 1 1 1 1 1 1
WIDTH 567
HEIGHT 1
VIEWPOINT 0 0 0 1 0 0 0
POINTS 567
DATA ascii
4.3595662 0.85537481 -1.109871 0 -0.99996281 -0.0057057398 -0.0064591346 0 28498 1
4.3595662 0.85537481 -1.109871 0 -0.99996281 -0.0057057398 -0.0064591346 0 28498 1
4.3596706 0.85541588 -1.1205237 0 -0.99996281 -0.0057057398 -0.0064591346 0 28498 1
4.3597746 0.85545695 -1.1311764 0 -0.99996281 -0.0057057398 -0.0064591346 0 28498 1
4.3598785 0.85549802 -1.141829 0 -0.99996281 -0.0057057398 -0.0064591346 0 28498 1
4.3599825 0.85553908 -1.1524817 0 -0.99996281 -0.0057057398 -0.0064591346 0 28498 1
4.3600864 0.85558015 -1.1631343 0 -0.99996281 -0.0057057398 -0.0064591346 0 28498 1
4.3601904 0.85562122 -1.173787 0 -0.99996281 -0.0057057398 -0.0064591346 0 28498 1
4.3602943 0.85566229 -1.1844397 0 -0.99996281 -0.0057057398 -0.0064591346 0 28498 1
4.3603983 0.85570335 -1.1950923 0 -0.99996281 -0.0057057398 -0.0064591346 0 28498 1
4.3605022 0.85574442 -1.205745 0 -0.99996281 -0.0057057398 -0.0064591346 0 28498 1
4.3606062 0.85578549 -1.2163976 0 -0.99996281 -0.0057057398 -0.0064591346 0 28498 1
4.3607101 0.85582656 -1.2270503 0 -0.99996281 -0.0057057398 -0.0064591346 0 28498 1
4.3608141 0.85586762 -1.237703 0 -0.99996281 -0.0057057398 -0.0064591346 0 28498 1
4.360918 0.85590869 -1.2483556 0 -0.99996281 -0.0057057398 -0.0064591346 0 28498 1
4.361022 0.85594976 -1.2590083 0 -0.99996281 -0.0057057398 -0.0064591346 0 28498 1
4.3610249 0.85595 -1.2590083 0 -0.99999934 -0.00079744664 -0.000765162 0 28796 1
4.3610249 0.85595 -1.2590083 0 -0.99999934 -0.00079744664 -0.000765162 0 28796 1
4.3610244 0.86608094 -1.2595677 0 -0.99999934 -0.00079744664 -0.000765162 0 28796 1
4.3610239 0.87621188 -1.2601272 0 -0.99999934 -0.00079744664 -0.000765162 0 28796 1
4.3610234 0.88634282 -1.2606866 0 -0.99999934 -0.00079744664 -0.000765162 0 28796 1
4.3610229 0.89647377 -1.2612461 0 -0.99999934 -0.00079744664 -0.000765162 0 28796 1
4.3610225 0.90660471 -1.2618055 0 -0.99999934 -0.00079744664 -0.000765162 0 28796 1
4.361022 0.91673565 -1.262365 0 -0.99999934 -0.00079744664 -0.000765162 0 28796 1
4.3610215 0.92686659 -1.2629244 0 -0.99999934 -0.00079744664 -0.000765162 0 28796 1
4.361021 0.93699753 -1.2634839 0 -0.99999934 -0.00079744664 -0.000765162 0 28796 1
4.3610206 0.94712847 -1.2640433 0 -0.99999934 -0.00079744664 -0.000765162 0 28796 1
4.3610201 0.95725942 -1.2646028 0 -0.99999934 -0.00079744664 -0.000765162 0 28796 1
4.3610196 0.96739036 -1.2651622 0 -0.99999934 -0.00079744664 -0.000765162 0 28796 1
4.3610191 0.9775213 -1.2657217 0 -0.99999934 -0.00079744664 -0.000765162 0 28796 1
4.3610187 0.98765224 -1.2662811 0 -0.99999934 -0.00079744664 -0.000765162 0 28796 1
4.3610182 0.99778318 -1.2668406 0 -0.99999934 -0.00079744664 -0.000765162 0 28796 1
4.3610177 1.0079141 -1.2674 0 -0.99999934 -0.00079744664 -0.000765162 0 28796 1
4.3610172 1.0180449 -1.2679595 0 -0.99999934 -0.00079744664 -0.000765162 0 28796 1
4.3610168 1.0281758 -1.2685189 0 -0.99999934 -0.00079744664 -0.000765162 0 28796 1
4.3610163 1.0383067 -1.2690784 0 -0.99999934 -0.00079744664 -0.000765162 0 28796 1
4.3610158 1.0484376 -1.2696378 0 -0.99999934 -0.00079744664 -0.000765162 0 28796 1
4.3610153 1.0585685 -1.2701973 0 -0.99999934 -0.00079744664 -0.000765162 0 28796 1
4.3610148 1.0686994 -1.2707567 0 -0.99999934 -0.00079744664 -0.000765162 0 28796 1
4.3610144 1.0788302 -1.2713162 0 -0.99999934 -0.00079744664 -0.000765162 0 28796 1
4.3610144 1.0788301 -1.2713151 0 -0.99999934 -0.00081637892 -0.0008370101 0 28793 1
4.3610144 1.0788301 -1.2713151 0 -0.99999934 -0.00081637892 -0.0008370101 0 28793 1
4.3609161 1.0780809 -1.2612151 0 -0.99999934 -0.00081637892 -0.0008370101 0 28793 1
4.3608179 1.0773317 -1.2511151 0 -0.99999934 -0.00081637892 -0.0008370101 0 28793 1
4.3607197 1.0765824 -1.2410151 0 -0.99999934 -0.00081637892 -0.0008370101 0 28793 1
4.3606215 1.0758332 -1.2309151 0 -0.99999934 -0.00081637892 -0.0008370101 0 28793 1
4.3605232 1.075084 -1.2208151 0 -0.99999934 -0.00081637892 -0.0008370101 0 28793 1
4.360425 1.0743347 -1.2107151 0 -0.99999934 -0.00081637892 -0.0008370101 0 28793 1
4.3603268 1.0735855 -1.200615 0 -0.99999934 -0.00081637892 -0.0008370101 0 28793 1
4.3602285 1.0728363 -1.190515 0 -0.99999934 -0.00081637892 -0.0008370101 0 28793 1
4.3601303 1.072087 -1.180415 0 -0.99999934 -0.00081637892 -0.0008370101 0 28793 1
4.3600321 1.0713378 -1.170315 0 -0.99999934 -0.00081637892 -0.0008370101 0 28793 1
4.3599339 1.0705886 -1.160215 0 -0.99999934 -0.00081637892 -0.0008370101 0 28793 1
4.3598356 1.0698394 -1.150115 0 -0.99999934 -0.00081637892 -0.0008370101 0 28793 1
4.3597374 1.0690901 -1.140015 0 -0.99999934 -0.00081637892 -0.0008370101 0 28793 1
4.3596392 1.0683409 -1.129915 0 -0.99999934 -0.00081637892 -0.0008370101 0 28793 1
4.3595409 1.0675917 -1.119815 0 -0.99999934 -0.00081637892 -0.0008370101 0 28793 1
4.3594427 1.0668424 -1.109715 0 -0.99999934 -0.00081637892 -0.0008370101 0 28793 1
4.3593445 1.0660932 -1.099615 0 -0.99999934 -0.00081637892 -0.0008370101 0 28793 1
4.3592463 1.065344 -1.089515 0 -0.99999934 -0.00081637892 -0.0008370101 0 28793 1
4.359148 1.0645947 -1.079415 0 -0.99999934 -0.00081637892 -0.0008370101 0 28793 1
4.3590498 1.0638455 -1.069315 0 -0.99999934 -0.00081637892 -0.0008370101 0 28793 1
4.3589516 1.0630963 -1.0592149 0 -0.99999934 -0.00081637892 -0.0008370101 0 28793 1
4.3588533 1.0623471 -1.0491149 0 -0.99999934 -0.00081637892 -0.0008370101 0 28793 1
4.3587551 1.0615978 -1.0390149 0 -0.99999934 -0.00081637892 -0.0008370101 0 28793 1
4.3586569 1.0608486 -1.0289149 0 -0.99999934 -0.00081637892 -0.0008370101 0 28793 1
4.3585587 1.0600994 -1.0188149 0 -0.99999934 -0.00081637892 -0.0008370101 0 28793 1
4.3584604 1.0593501 -1.0087149 0 -0.99999934 -0.00081637892 -0.0008370101 0 28793 1
4.3583622 1.0586009 -0.99861497 0 -0.99999934 -0.00081637892 -0.0008370101 0 28793 1
4.358264 1.0578517 -0.98851502 0 -0.99999934 -0.00081637892 -0.0008370101 0 28793 1
4.3581657 1.0571024 -0.97841507 0 -0.99999934 -0.00081637892 -0.0008370101 0 28793 1
4.3580675 1.0563532 -0.96831512 0 -0.99999934 -0.00081637892 -0.0008370101 0 28793 1
4.3579693 1.055604 -0.95821518 0 -0.99999934 -0.00081637892 -0.0008370101 0 28793 1
4.3578711 1.0548548 -0.94811523 0 -0.99999934 -0.00081637892 -0.0008370101 0 28793 1
4.3577728 1.0541055 -0.93801528 0 -0.99999934 -0.00081637892 -0.0008370101 0 28793 1
4.3576746 1.0533563 -0.92791533 0 -0.99999934 -0.00081637892 -0.0008370101 0 28793 1
4.3575764 1.0526071 -0.91781539 0 -0.99999934 -0.00081637892 -0.0008370101 0 28793 1
4.3574781 1.0518578 -0.90771544 0 -0.99999934 -0.00081637892 -0.0008370101 0 28793 1
4.3574719 1.0518582 -0.90771651 0 -0.99999934 -0.00085757137 -0.00081161235 0 28309 1
4.5124922 1.1951288 0.92176604 0 -0.9999994 -0.00085498503 -0.00068292808 0 32833 1
4.5124822 1.1848691 0.92338747 0 -0.9999994 -0.00085498503 -0.00068292808 0 32833 1
4.5124722 1.1746093 0.92500889 0 -0.9999994 -0.00085498503 -0.00068292808 0 32833 1
4.5124621 1.1643496 0.92663032 0 -0.9999994 -0.00085498503 -0.00068292808 0 32833 1
4.5124521 1.1540898 0.92825174 0 -0.9999994 -0.00085498503 -0.00068292808 0 32833 1
4.5124421 1.1438301 0.92987317 0 -0.9999994 -0.00085498503 -0.00068292808 0 32833 1
4.5124321 1.1335703 0.93149459 0 -0.9999994 -0.00085498503 -0.00068292808 0 32833 1
4.5124221 1.1233106 0.93311602 0 -0.9999994 -0.00085498503 -0.00068292808 0 32833 1
4.5124121 1.1130508 0.93473744 0 -0.9999994 -0.00085498503 -0.00068292808 0 32833 1
4.5124021 1.1027911 0.93635887 0 -0.9999994 -0.00085498503 -0.00068292808 0 32833 1
4.512392 1.0925313 0.93798029 0 -0.9999994 -0.00085498503 -0.00068292808 0 32833 1
4.512382 1.0822716 0.93960172 0 -0.9999994 -0.00085498503 -0.00068292808 0 32833 1
4.512372 1.0720118 0.94122314 0 -0.9999994 -0.00085498503 -0.00068292808 0 32833 1
4.512362 1.0617521 0.94284457 0 -0.9999994 -0.00085498503 -0.00068292808 0 32833 1
4.512352 1.0514923 0.94446599 0 -0.9999994 -0.00085498503 -0.00068292808 0 32833 1
4.512342 1.0412326 0.94608742 0 -0.9999994 -0.00085498503 -0.00068292808 0 32833 1
4.512332 1.0309728 0.94770885 0 -0.9999994 -0.00085498503 -0.00068292808 0 32833 1
4.5123219 1.0207131 0.94933027 0 -0.9999994 -0.00085498503 -0.00068292808 0 32833 1
4.5123119 1.0104533 0.9509517 0 -0.9999994 -0.00085498503 -0.00068292808 0 32833 1
4.5123019 1.0001936 0.95257312 0 -0.9999994 -0.00085498503 -0.00068292808 0 32833 1
4.5122919 0.98993391 0.95419455 0 -0.9999994 -0.00085498503 -0.00068292808 0 32833 1
4.5122819 0.97967422 0.95581597 0 -0.9999994 -0.00085498503 -0.00068292808 0 32833 1
4.5122719 0.96941453 0.9574374 0 -0.9999994 -0.00085498503 -0.00068292808 0 32833 1
4.5122619 0.95915484 0.95905882 0 -0.9999994 -0.00085498503 -0.00068292808 0 32833 1
4.5122519 0.94889516 0.96068025 0 -0.9999994 -0.00085498503 -0.00068292808 0 32833 1
4.5122552 0.94889575 0.96067971 0 -0.9999994 -0.00077915681 -0.00081729324 0 32845 1
4.5122552 0.94889575 0.96067971 0 -0.9999994 -0.00077915681 -0.00081729324 0 32845 1
4.5123615 0.94877505 0.94983488 0 -0.9999994 -0.00077915681 -0.00081729324 0 32845 1
4.5124679 0.94865435 0.93899006 0 -0.9999994 -0.00077915681 -0.00081729324 0 32845 1
4.5125742 0.94853365 0.92814523 0 -0.9999994 -0.00077915681 -0.00081729324 0 32845 1
4.5126805 0.94841295 0.9173004 0 -0.9999994 -0.00077915681 -0.00081729324 0 32845 1
4.5127869 0.94829226 0.90645558 0 -0.9999994 -0.00077915681 -0.00081729324 0 32845 1
4.5128932 0.94817156 0.89561075 0 -0.9999994 -0.00077915681 -0.00081729324 0 32845 1
4.5129995 0.94805086 0.88476592 0 -0.9999994 -0.00077915681 -0.00081729324 0 32845 1
4.5131059 0.94793016 0.8739211 0 -0.9999994 -0.00077915681 -0.00081729324 0 32845 1
4.5132122 0.94780946 0.86307627 0 -0.9999994 -0.00077915681 -0.00081729324 0 32845 1
4.5133185 0.94768876 0.85223144 0 -0.9999994 -0.00077915681 -0.00081729324 0 32845 1
4.5134249 0.94756806 0.84138662 0 -0.9999994 -0.00077915681 -0.00081729324 0 32845 1
4.513423 0.94756788 0.84138685 0 -0.99999917 -0.000868843 -0.00096166733 0 33005 1
4.513423 0.94756788 0.84138685 0 -0.99999917 -0.000868843 -0.00096166733 0 33005 1
4.5134468 0.9573769 0.83835369 0 -0.99999917 -0.000868843 -0.00096166733 0 33005 1
4.5134706 0.96718591 0.83532053 0 -0.99999917 -0.000868843 -0.00096166733 0 33005 1
4.5134945 0.97699493 0.83228737 0 -0.99999917 -0.000868843 -0.00096166733 0 33005 1
4.5135183 0.98680395 0.82925421 0 -0.99999917 -0.000868843 -0.00096166733 0 33005 1
4.5135422 0.99661297 0.82622105 0 -0.99999917 -0.000868843 -0.00096166733 0 33005 1
4.513566 1.006422 0.82318789 0 -0.99999917 -0.000868843 -0.00096166733 0 33005 1
4.5135899 1.0162311 0.82015473 0 -0.99999917 -0.000868843 -0.00096166733 0 33005 1
4.5136137 1.0260401 0.81712157 0 -0.99999917 -0.000868843 -0.00096166733 0 33005 1
4.5136375 1.0358491 0.8140884 0 -0.99999917 -0.000868843 -0.00096166733 0 33005 1
4.5136614 1.0456581 0.81105524 0 -0.99999917 -0.000868843 -0.00096166733 0 33005 1
4.5136852 1.0554671 0.80802208 0 -0.99999917 -0.000868843 -0.00096166733 0 33005 1
4.5137091 1.0652761 0.80498892 0 -0.99999917 -0.000868843 -0.00096166733 0 33005 1
4.5137329 1.0750852 0.80195576 0 -0.99999917 -0.000868843 -0.00096166733 0 33005 1
4.5137568 1.0848942 0.7989226 0 -0.99999917 -0.000868843 -0.00096166733 0 33005 1
4.5137806 1.0947032 0.79588944 0 -0.99999917 -0.000868843 -0.00096166733 0 33005 1
4.5138044 1.1045122 0.79285628 0 -0.99999917 -0.000868843 -0.00096166733 0 33005 1
4.5138283 1.1143212 0.78982311 0 -0.99999917 -0.000868843 -0.00096166733 0 33005 1
4.5138521 1.1241302 0.78678995 0 -0.99999917 -0.000868843 -0.00096166733 0 33005 1
4.513876 1.1339393 0.78375679 0 -0.99999917 -0.000868843 -0.00096166733 0 33005 1
4.5138998 1.1437483 0.78072363 0 -0.99999917 -0.000868843 -0.00096166733 0 33005 1
4.5139236 1.1535573 0.77769047 0 -0.99999917 -0.000868843 -0.00096166733 0 33005 1
4.5139475 1.1633663 0.77465731 0 -0.99999917 -0.000868843 -0.00096166733 0 33005 1
4.5139713 1.1731753 0.77162415 0 -0.99999917 -0.000868843 -0.00096166733 0 33005 1
4.5139952 1.1829844 0.76859099 0 -0.99999917 -0.000868843 -0.00096166733 0 33005 1
4.514019 1.1927934 0.76555783 0 -0.99999917 -0.000868843 -0.00096166733 0 33005 1
4.51402 1.1927938 0.76555848 0 -0.99999934 -0.0007361715 -0.00084203132 0 32977 1
4.51402 1.1927938 0.76555848 0 -0.99999934 -0.0007361715 -0.00084203132 0 32977 1
4.5139179 1.1929495 0.77597231 0 -0.99999934 -0.0007361715 -0.00084203132 0 32977 1
4.5138159 1.1931052 0.78638613 0 -0.99999934 -0.0007361715 -0.00084203132 0 32977 1
4.5137138 1.1932609 0.79679996 0 -0.99999934 -0.0007361715 -0.00084203132 0 32977 1
4.5136118 1.1934166 0.80721378 0 -0.99999934 -0.0007361715 -0.00084203132 0 32977 1
4.5135098 1.1935723 0.81762761 0 -0.99999934 -0.0007361715 -0.00084203132 0 32977 1
4.5134077 1.193728 0.82804143 0 -0.99999934 -0.0007361715 -0.00084203132 0 32977 1
4.5133057 1.1938837 0.83845526 0 -0.99999934 -0.0007361715 -0.00084203132 0 32977 1
4.5132036 1.1940393 0.84886909 0 -0.99999934 -0.0007361715 -0.00084203132 0 32977 1
4.5131016 1.194195 0.85928291 0 -0.99999934 -0.0007361715 -0.00084203132 0 32977 1
4.5129995 1.1943507 0.86969674 0 -0.99999934 -0.0007361715 -0.00084203132 0 32977 1
4.5128975 1.1945064 0.88011056 0 -0.99999934 -0.0007361715 -0.00084203132 0 32977 1
4.5127954 1.1946621 0.89052439 0 -0.99999934 -0.0007361715 -0.00084203132 0 32977 1
4.5126934 1.1948178 0.90093821 0 -0.99999934 -0.0007361715 -0.00084203132 0 32977 1
4.5125914 1.1949735 0.91135204 0 -0.99999934 -0.0007361715 -0.00084203132 0 32977 1
4.5124893 1.1951292 0.92176586 0 -0.99999934 -0.0007361715 -0.00084203132 0 32977 1
4.5124922 1.1951288 0.92176604 0 -0.9999994 -0.00085498503 -0.00068292808 0 32833 1
4.6282005 0.7665807 1.6924853 0 -0.99999928 -0.00084865786 -0.00083971943 0 37924 1
4.628799 0.76027167 1.6847397 0 -0.99999928 -0.00084865786 -0.00083971943 0 37924 1
4.6293974 0.75396264 1.6769941 0 -0.99999928 -0.00084865786 -0.00083971943 0 37924 1
4.6299958 0.7476536 1.6692485 0 -0.99999928 -0.00084865786 -0.00083971943 0 37924 1
4.6305943 0.74134457 1.6615028 0 -0.99999928 -0.00084865786 -0.00083971943 0 37924 1
4.6311927 0.73503554 1.6537572 0 -0.99999928 -0.00084865786 -0.00083971943 0 37924 1
4.6317911 0.72872651 1.6460116 0 -0.99999928 -0.00084865786 -0.00083971943 0 37924 1
4.6323895 0.72241747 1.638266 0 -0.99999928 -0.00084865786 -0.00083971943 0 37924 1
4.632988 0.71610844 1.6305203 0 -0.99999928 -0.00084865786 -0.00083971943 0 37924 1
4.6335864 0.70979941 1.6227747 0 -0.99999928 -0.00084865786 -0.00083971943 0 37924 1
4.6341848 0.70349038 1.6150291 0 -0.99999928 -0.00084865786 -0.00083971943 0 37924 1
4.6347833 0.69718134 1.6072835 0 -0.99999928 -0.00084865786 -0.00083971943 0 37924 1
4.6353817 0.69087231 1.5995378 0 -0.99999928 -0.00084865786 -0.00083971943 0 37924 1
4.6359801 0.68456328 1.5917922 0 -0.99999928 -0.00084865786 -0.00083971943 0 37924 1
4.6365786 0.67825425 1.5840466 0 -0.99999928 -0.00084865786 -0.00083971943 0 37924 1
4.637177 0.67194521 1.576301 0 -0.99999928 -0.00084865786 -0.00083971943 0 37924 1
4.6377754 0.66563618 1.5685554 0 -0.99999928 -0.00084865786 -0.00083971943 0 37924 1
4.6383739 0.65932715 1.5608097 0 -0.99999928 -0.00084865786 -0.00083971943 0 37924 1
4.6389723 0.65301812 1.5530641 0 -0.99999928 -0.00084865786 -0.00083971943 0 37924 1
4.6395707 0.64670908 1.5453185 0 -0.99999928 -0.00084865786 -0.00083971943 0 37924 1
4.6401691 0.64040005 1.5375729 0 -0.99999928 -0.00084865786 -0.00083971943 0 37924 1
4.6407676 0.63409102 1.5298272 0 -0.99999928 -0.00084865786 -0.00083971943 0 37924 1
4.641366 0.62778199 1.5220816 0 -0.99999928 -0.00084865786 -0.00083971943 0 37924 1
4.6419644 0.62147295 1.514336 0 -0.99999928 -0.00084865786 -0.00083971943 0 37924 1
4.6425629 0.61516392 1.5065904 0 -0.99999928 -0.00084865786 -0.00083971943 0 37924 1
4.6431613 0.60885489 1.4988447 0 -0.99999928 -0.00084865786 -0.00083971943 0 37924 1
4.6437597 0.60254586 1.4910991 0 -0.99999928 -0.00084865786 -0.00083971943 0 37924 1
4.6443582 0.59623682 1.4833535 0 -0.99999928 -0.00084865786 -0.00083971943 0 37924 1
4.6449566 0.58992779 1.4756079 0 -0.99999928 -0.00084865786 -0.00083971943 0 37924 1
4.645555 0.58361876 1.4678622 0 -0.99999928 -0.00084865786 -0.00083971943 0 37924 1
4.6461535 0.57730973 1.4601166 0 -0.99999928 -0.00084865786 -0.00083971943 0 37924 1
4.6467519 0.5710007 1.452371 0 -0.99999928 -0.00084865786 -0.00083971943 0 37924 1
4.6473503 0.56469166 1.4446254 0 -0.99999928 -0.00084865786 -0.00083971943 0 37924 1
4.6479487 0.55838263 1.4368798 0 -0.99999928 -0.00084865786 -0.00083971943 0 37924 1
4.6485472 0.5520736 1.4291341 0 -0.99999928 -0.00084865786 -0.00083971943 0 37924 1
4.6491456 0.54576457 1.4213885 0 -0.99999928 -0.00084865786 -0.00083971943 0 37924 1
4.649744 0.53945553 1.4136429 0 -0.99999928 -0.00084865786 -0.00083971943 0 37924 1
4.6503425 0.5331465 1.4058973 0 -0.99999928 -0.00084865786 -0.00083971943 0 37924 1
4.6509409 0.52683747 1.3981516 0 -0.99999928 -0.00084865786 -0.00083971943 0 37924 1
4.6515393 0.52052844 1.390406 0 -0.99999928 -0.00084865786 -0.00083971943 0 37924 1
4.6521378 0.5142194 1.3826604 0 -0.99999928 -0.00084865786 -0.00083971943 0 37924 1
4.6527362 0.50791037 1.3749148 0 -0.99999928 -0.00084865786 -0.00083971943 0 37924 1
4.6533346 0.50160134 1.3671691 0 -0.99999928 -0.00084865786 -0.00083971943 0 37924 1
4.653933 0.49529231 1.3594235 0 -0.99999928 -0.00084865786 -0.00083971943 0 37924 1
4.6545315 0.48898327 1.3516779 0 -0.99999928 -0.00084865786 -0.00083971943 0 37924 1
4.6551299 0.48267424 1.3439323 0 -0.99999928 -0.00084865786 -0.00083971943 0 37924 1
4.6557283 0.47636521 1.3361866 0 -0.99999928 -0.00084865786 -0.00083971943 0 37924 1
4.6563268 0.47005618 1.328441 0 -0.99999928 -0.00084865786 -0.00083971943 0 37924 1
4.6569252 0.46374714 1.3206954 0 -0.99999928 -0.00084865786 -0.00083971943 0 37924 1
4.6575236 0.45743811 1.3129498 0 -0.99999928 -0.00084865786 -0.00083971943 0 37924 1
4.6581221 0.45112908 1.3052042 0 -0.99999928 -0.00084865786 -0.00083971943 0 37924 1
4.6581249 0.45112854 1.3052044 0 -0.99999952 -0.0006729234 -0.00078349374 0 38003 1
4.6581249 0.45112854 1.3052044 0 -0.99999952 -0.0006729234 -0.00078349374 0 38003 1
4.6606932 0.45083621 1.2952703 0 -0.99999952 -0.0006729234 -0.00078349374 0 38003 1
4.6632614 0.45054388 1.2853363 0 -0.99999952 -0.0006729234 -0.00078349374 0 38003 1
4.6658297 0.45025155 1.2754022 0 -0.99999952 -0.0006729234 -0.00078349374 0 38003 1
4.6683979 0.44995922 1.2654681 0 -0.99999952 -0.0006729234 -0.00078349374 0 38003 1
4.6709661 0.44966689 1.2555341 0 -0.99999952 -0.0006729234 -0.00078349374 0 38003 1
4.6735344 0.44937456 1.2456 0 -0.99999952 -0.0006729234 -0.00078349374 0 38003 1
4.6761026 0.44908223 1.2356659 0 -0.99999952 -0.0006729234 -0.00078349374 0 38003 1
4.6786709 0.44878989 1.2257318 0 -0.99999952 -0.0006729234 -0.00078349374 0 38003 1
4.6812391 0.44849756 1.2157978 0 -0.99999952 -0.0006729234 -0.00078349374 0 38003 1
4.6838074 0.44820523 1.2058637 0 -0.99999952 -0.0006729234 -0.00078349374 0 38003 1
4.6863756 0.4479129 1.1959296 0 -0.99999952 -0.0006729234 -0.00078349374 0 38003 1
4.6889439 0.44762057 1.1859956 0 -0.99999952 -0.0006729234 -0.00078349374 0 38003 1
4.6915121 0.44732824 1.1760615 0 -0.99999952 -0.0006729234 -0.00078349374 0 38003 1
4.6940804 0.44703591 1.1661274 0 -0.99999952 -0.0006729234 -0.00078349374 0 38003 1
4.6966486 0.44674358 1.1561934 0 -0.99999952 -0.0006729234 -0.00078349374 0 38003 1
4.6966476 0.44674361 1.1561925 0 -0.99999928 -0.00085937936 -0.00079005433 0 38074 1
4.6966476 0.44674361 1.1561925 0 -0.99999928 -0.00085937936 -0.00079005433 0 38074 1
4.6947355 0.45657802 1.1559232 0 -0.99999928 -0.00085937936 -0.00079005433 0 38074 1
4.6928234 0.46641243 1.155654 0 -0.99999928 -0.00085937936 -0.00079005433 0 38074 1
4.6909113 0.47624683 1.1553847 0 -0.99999928 -0.00085937936 -0.00079005433 0 38074 1
4.6889992 0.48608124 1.1551154 0 -0.99999928 -0.00085937936 -0.00079005433 0 38074 1
4.6870871 0.49591565 1.1548461 0 -0.99999928 -0.00085937936 -0.00079005433 0 38074 1
4.6851749 0.50575006 1.1545768 0 -0.99999928 -0.00085937936 -0.00079005433 0 38074 1
4.6832628 0.51558447 1.1543075 0 -0.99999928 -0.00085937936 -0.00079005433 0 38074 1
4.6813507 0.52541888 1.1540382 0 -0.99999928 -0.00085937936 -0.00079005433 0 38074 1
4.6794386 0.53525329 1.1537689 0 -0.99999928 -0.00085937936 -0.00079005433 0 38074 1
4.6775265 0.5450877 1.1534996 0 -0.99999928 -0.00085937936 -0.00079005433 0 38074 1
4.6756144 0.5549221 1.1532303 0 -0.99999928 -0.00085937936 -0.00079005433 0 38074 1
4.6737022 0.56475651 1.152961 0 -0.99999928 -0.00085937936 -0.00079005433 0 38074 1
4.6717901 0.57459092 1.1526917 0 -0.99999928 -0.00085937936 -0.00079005433 0 38074 1
4.669878 0.58442533 1.1524224 0 -0.99999928 -0.00085937936 -0.00079005433 0 38074 1
4.6679659 0.59425974 1.1521531 0 -0.99999928 -0.00085937936 -0.00079005433 0 38074 1
4.6660538 0.60409415 1.1518838 0 -0.99999928 -0.00085937936 -0.00079005433 0 38074 1
4.6641417 0.61392856 1.1516145 0 -0.99999928 -0.00085937936 -0.00079005433 0 38074 1
4.6622295 0.62376297 1.1513453 0 -0.99999928 -0.00085937936 -0.00079005433 0 38074 1
4.6603174 0.63359737 1.151076 0 -0.99999928 -0.00085937936 -0.00079005433 0 38074 1
4.6584053 0.64343178 1.1508067 0 -0.99999928 -0.00085937936 -0.00079005433 0 38074 1
4.6564932 0.65326619 1.1505374 0 -0.99999928 -0.00085937936 -0.00079005433 0 38074 1
4.6545811 0.6631006 1.1502681 0 -0.99999928 -0.00085937936 -0.00079005433 0 38074 1
4.652669 0.67293501 1.1499988 0 -0.99999928 -0.00085937936 -0.00079005433 0 38074 1
4.6507568 0.68276942 1.1497295 0 -0.99999928 -0.00085937936 -0.00079005433 0 38074 1
4.6488447 0.69260383 1.1494602 0 -0.99999928 -0.00085937936 -0.00079005433 0 38074 1
4.6469326 0.70243824 1.1491909 0 -0.99999928 -0.00085937936 -0.00079005433 0 38074 1
4.6450205 0.71227264 1.1489216 0 -0.99999928 -0.00085937936 -0.00079005433 0 38074 1
4.6431084 0.72210705 1.1486523 0 -0.99999928 -0.00085937936 -0.00079005433 0 38074 1
4.6411963 0.73194146 1.148383 0 -0.99999928 -0.00085937936 -0.00079005433 0 38074 1
4.6392841 0.74177587 1.1481137 0 -0.99999928 -0.00085937936 -0.00079005433 0 38074 1
4.637372 0.75161028 1.1478444 0 -0.99999928 -0.00085937936 -0.00079005433 0 38074 1
4.6354599 0.76144469 1.1475751 0 -0.99999928 -0.00085937936 -0.00079005433 0 38074 1
4.6335478 0.7712791 1.1473058 0 -0.99999928 -0.00085937936 -0.00079005433 0 38074 1
4.6335411 0.7712791 1.1473073 0 -0.99999934 -0.00083215558 -0.00078685407 0 36405 1
4.6335411 0.7712791 1.1473073 0 -0.99999934 -0.00083215558 -0.00078685407 0 36405 1
4.6334424 0.77119207 1.1574031 0 -0.99999934 -0.00083215558 -0.00078685407 0 36405 1
4.6333437 0.77110505 1.1674989 0 -0.99999934 -0.00083215558 -0.00078685407 0 36405 1
4.633245 0.77101803 1.1775948 0 -0.99999934 -0.00083215558 -0.00078685407 0 36405 1
4.6331463 0.77093101 1.1876906 0 -0.99999934 -0.00083215558 -0.00078685407 0 36405 1
4.6330476 0.77084398 1.1977865 0 -0.99999934 -0.00083215558 -0.00078685407 0 36405 1
4.6329489 0.77075696 1.2078823 0 -0.99999934 -0.00083215558 -0.00078685407 0 36405 1
4.6328502 0.77066994 1.2179781 0 -0.99999934 -0.00083215558 -0.00078685407 0 36405 1
4.6327515 0.77058291 1.228074 0 -0.99999934 -0.00083215558 -0.00078685407 0 36405 1
4.6326528 0.77049589 1.2381698 0 -0.99999934 -0.00083215558 -0.00078685407 0 36405 1
4.6325541 0.77040887 1.2482656 0 -0.99999934 -0.00083215558 -0.00078685407 0 36405 1
4.6324553 0.77032185 1.2583615 0 -0.99999934 -0.00083215558 -0.00078685407 0 36405 1
4.6323566 0.77023482 1.2684573 0 -0.99999934 -0.00083215558 -0.00078685407 0 36405 1
4.6322579 0.7701478 1.2785531 0 -0.99999934 -0.00083215558 -0.00078685407 0 36405 1
4.6321592 0.77006078 1.288649 0 -0.99999934 -0.00083215558 -0.00078685407 0 36405 1
4.6320605 0.76997375 1.2987448 0 -0.99999934 -0.00083215558 -0.00078685407 0 36405 1
4.6319618 0.76988673 1.3088406 0 -0.99999934 -0.00083215558 -0.00078685407 0 36405 1
4.6318631 0.76979971 1.3189365 0 -0.99999934 -0.00083215558 -0.00078685407 0 36405 1
4.6317644 0.76971269 1.3290323 0 -0.99999934 -0.00083215558 -0.00078685407 0 36405 1
4.6316657 0.76962566 1.3391281 0 -0.99999934 -0.00083215558 -0.00078685407 0 36405 1
4.631567 0.76953864 1.349224 0 -0.99999934 -0.00083215558 -0.00078685407 0 36405 1
4.6314683 0.76945162 1.3593198 0 -0.99999934 -0.00083215558 -0.00078685407 0 36405 1
4.6313696 0.7693646 1.3694156 0 -0.99999934 -0.00083215558 -0.00078685407 0 36405 1
4.6312709 0.76927757 1.3795115 0 -0.99999934 -0.00083215558 -0.00078685407 0 36405 1
4.6311722 0.76919055 1.3896073 0 -0.99999934 -0.00083215558 -0.00078685407 0 36405 1
4.6310735 0.76910353 1.3997031 0 -0.99999934 -0.00083215558 -0.00078685407 0 36405 1
4.6309748 0.7690165 1.409799 0 -0.99999934 -0.00083215558 -0.00078685407 0 36405 1
4.6308761 0.76892948 1.4198948 0 -0.99999934 -0.00083215558 -0.00078685407 0 36405 1
4.6307774 0.76884246 1.4299906 0 -0.99999934 -0.00083215558 -0.00078685407 0 36405 1
4.6306787 0.76875544 1.4400865 0 -0.99999934 -0.00083215558 -0.00078685407 0 36405 1
4.6305799 0.76866841 1.4501823 0 -0.99999934 -0.00083215558 -0.00078685407 0 36405 1
4.6304812 0.76858139 1.4602782 0 -0.99999934 -0.00083215558 -0.00078685407 0 36405 1
4.6303825 0.76849437 1.470374 0 -0.99999934 -0.00083215558 -0.00078685407 0 36405 1
4.6302838 0.76840734 1.4804698 0 -0.99999934 -0.00083215558 -0.00078685407 0 36405 1
4.6301851 0.76832032 1.4905657 0 -0.99999934 -0.00083215558 -0.00078685407 0 36405 1
4.6300864 0.7682333 1.5006615 0 -0.99999934 -0.00083215558 -0.00078685407 0 36405 1
4.6299877 0.76814628 1.5107573 0 -0.99999934 -0.00083215558 -0.00078685407 0 36405 1
4.629889 0.76805925 1.5208532 0 -0.99999934 -0.00083215558 -0.00078685407 0 36405 1
4.6297903 0.76797223 1.530949 0 -0.99999934 -0.00083215558 -0.00078685407 0 36405 1
4.6296916 0.76788521 1.5410448 0 -0.99999934 -0.00083215558 -0.00078685407 0 36405 1
4.6295929 0.76779819 1.5511407 0 -0.99999934 -0.00083215558 -0.00078685407 0 36405 1
4.6294942 0.76771116 1.5612365 0 -0.99999934 -0.00083215558 -0.00078685407 0 36405 1
4.6293955 0.76762414 1.5713323 0 -0.99999934 -0.00083215558 -0.00078685407 0 36405 1
4.6292968 0.76753712 1.5814282 0 -0.99999934 -0.00083215558 -0.00078685407 0 36405 1
4.6291981 0.76745009 1.591524 0 -0.99999934 -0.00083215558 -0.00078685407 0 36405 1
4.6290994 0.76736307 1.6016198 0 -0.99999934 -0.00083215558 -0.00078685407 0 36405 1
4.6290007 0.76727605 1.6117157 0 -0.99999934 -0.00083215558 -0.00078685407 0 36405 1
4.628902 0.76718903 1.6218115 0 -0.99999934 -0.00083215558 -0.00078685407 0 36405 1
4.6288033 0.767102 1.6319073 0 -0.99999934 -0.00083215558 -0.00078685407 0 36405 1
4.6287045 0.76701498 1.6420032 0 -0.99999934 -0.00083215558 -0.00078685407 0 36405 1
4.6286058 0.76692796 1.652099 0 -0.99999934 -0.00083215558 -0.00078685407 0 36405 1
4.6285071 0.76684093 1.6621948 0 -0.99999934 -0.00083215558 -0.00078685407 0 36405 1
4.6284084 0.76675391 1.6722907 0 -0.99999934 -0.00083215558 -0.00078685407 0 36405 1
4.6283097 0.76666689 1.6823865 0 -0.99999934 -0.00083215558 -0.00078685407 0 36405 1
4.628211 0.76657987 1.6924824 0 -0.99999934 -0.00083215558 -0.00078685407 0 36405 1
4.6282005 0.7665807 1.6924853 0 -0.99999928 -0.00084865786 -0.00083971943 0 37924 1
4.8530388 0.35694495 -1.1256981 0 -0.99999928 -0.00084447011 -0.00084087771 0 44684 1
4.8529873 0.34833816 -1.1199291 0 -0.99999928 -0.00084447011 -0.00084087771 0 44684 1
4.8529358 0.33973137 -1.1141601 0 -0.99999928 -0.00084447011 -0.00084087771 0 44684 1
4.8528843 0.33112457 -1.108391 0 -0.99999928 -0.00084447011 -0.00084087771 0 44684 1
4.8528328 0.32251778 -1.102622 0 -0.99999928 -0.00084447011 -0.00084087771 0 44684 1
4.8527813 0.31391099 -1.096853 0 -0.99999928 -0.00084447011 -0.00084087771 0 44684 1
4.8527298 0.3053042 -1.091084 0 -0.99999928 -0.00084447011 -0.00084087771 0 44684 1
4.8526783 0.29669741 -1.085315 0 -0.99999928 -0.00084447011 -0.00084087771 0 44684 1
4.8526268 0.28809062 -1.079546 0 -0.99999928 -0.00084447011 -0.00084087771 0 44684 1
4.8525753 0.27948382 -1.073777 0 -0.99999928 -0.00084447011 -0.00084087771 0 44684 1
4.8525238 0.27087703 -1.0680079 0 -0.99999928 -0.00084447011 -0.00084087771 0 44684 1
4.8524723 0.26227024 -1.0622389 0 -0.99999928 -0.00084447011 -0.00084087771 0 44684 1
4.8524208 0.25366345 -1.0564699 0 -0.99999928 -0.00084447011 -0.00084087771 0 44684 1
4.8523693 0.24505667 -1.0507009 0 -0.99999928 -0.00084447011 -0.00084087771 0 44684 1
4.8523178 0.2364499 -1.0449319 0 -0.99999928 -0.00084447011 -0.00084087771 0 44684 1
4.8522663 0.22784312 -1.0391629 0 -0.99999928 -0.00084447011 -0.00084087771 0 44684 1
4.8522148 0.21923634 -1.0333939 0 -0.99999928 -0.00084447011 -0.00084087771 0 44684 1
4.8521633 0.21062957 -1.0276248 0 -0.99999928 -0.00084447011 -0.00084087771 0 44684 1
4.8521118 0.20202279 -1.0218558 0 -0.99999928 -0.00084447011 -0.00084087771 0 44684 1
4.8520603 0.19341601 -1.0160868 0 -0.99999928 -0.00084447011 -0.00084087771 0 44684 1
4.8520088 0.18480924 -1.0103178 0 -0.99999928 -0.00084447011 -0.00084087771 0 44684 1
4.8519573 0.17620246 -1.0045488 0 -0.99999928 -0.00084447011 -0.00084087771 0 44684 1
4.8519058 0.16759568 -0.99877977 0 -0.99999928 -0.00084447011 -0.00084087771 0 44684 1
4.8518543 0.15898891 -0.99301076 0 -0.99999928 -0.00084447011 -0.00084087771 0 44684 1
4.8518028 0.15038213 -0.98724174 0 -0.99999928 -0.00084447011 -0.00084087771 0 44684 1
4.8517513 0.14177535 -0.98147273 0 -0.99999928 -0.00084447011 -0.00084087771 0 44684 1
4.8516998 0.13316858 -0.97570372 0 -0.99999928 -0.00084447011 -0.00084087771 0 44684 1
4.8517027 0.13316859 -0.97570372 0 -0.99999958 -0.00059694389 -0.00064760278 0 44726 1
4.8517027 0.13316859 -0.97570372 0 -0.99999958 -0.00059694389 -0.00064760278 0 44726 1
4.8518023 0.13302353 -0.98589742 0 -0.99999958 -0.00059694389 -0.00064760278 0 44726 1
4.851902 0.13287847 -0.99609113 0 -0.99999958 -0.00059694389 -0.00064760278 0 44726 1
4.8520017 0.1327334 -1.0062848 0 -0.99999958 -0.00059694389 -0.00064760278 0 44726 1
4.8521013 0.13258834 -1.0164785 0 -0.99999958 -0.00059694389 -0.00064760278 0 44726 1
4.852201 0.13244328 -1.0266722 0 -0.99999958 -0.00059694389 -0.00064760278 0 44726 1
4.8523006 0.13229822 -1.0368659 0 -0.99999958 -0.00059694389 -0.00064760278 0 44726 1
4.8524003 0.13215315 -1.0470597 0 -0.99999958 -0.00059694389 -0.00064760278 0 44726 1
4.8525 0.13200809 -1.0572534 0 -0.99999958 -0.00059694389 -0.00064760278 0 44726 1
4.8525996 0.13186303 -1.0674471 0 -0.99999958 -0.00059694389 -0.00064760278 0 44726 1
4.8526993 0.13171797 -1.0776408 0 -0.99999958 -0.00059694389 -0.00064760278 0 44726 1
4.8527989 0.1315729 -1.0878345 0 -0.99999958 -0.00059694389 -0.00064760278 0 44726 1
4.8528986 0.13142784 -1.0980282 0 -0.99999958 -0.00059694389 -0.00064760278 0 44726 1
4.8529983 0.13128278 -1.1082219 0 -0.99999958 -0.00059694389 -0.00064760278 0 44726 1
4.8530979 0.13113771 -1.1184156 0 -0.99999958 -0.00059694389 -0.00064760278 0 44726 1
4.8531976 0.13099265 -1.1286093 0 -0.99999958 -0.00059694389 -0.00064760278 0 44726 1
4.8532972 0.13084759 -1.138803 0 -0.99999958 -0.00059694389 -0.00064760278 0 44726 1
4.8533969 0.13070253 -1.1489967 0 -0.99999958 -0.00059694389 -0.00064760278 0 44726 1
4.8534966 0.13055746 -1.1591904 0 -0.99999958 -0.00059694389 -0.00064760278 0 44726 1
4.8535962 0.1304124 -1.1693841 0 -0.99999958 -0.00059694389 -0.00064760278 0 44726 1
4.8536959 0.13026734 -1.1795778 0 -0.99999958 -0.00059694389 -0.00064760278 0 44726 1
4.8537955 0.13012227 -1.1897715 0 -0.99999958 -0.00059694389 -0.00064760278 0 44726 1
4.8538952 0.12997721 -1.1999652 0 -0.99999958 -0.00059694389 -0.00064760278 0 44726 1
4.8539948 0.12983215 -1.2101589 0 -0.99999958 -0.00059694389 -0.00064760278 0 44726 1
4.8540945 0.12968709 -1.2203526 0 -0.99999958 -0.00059694389 -0.00064760278 0 44726 1
4.8541942 0.12954202 -1.2305464 0 -0.99999958 -0.00059694389 -0.00064760278 0 44726 1
4.8542938 0.12939696 -1.2407401 0 -0.99999958 -0.00059694389 -0.00064760278 0 44726 1
4.8543935 0.1292519 -1.2509338 0 -0.99999958 -0.00059694389 -0.00064760278 0 44726 1
4.8544931 0.12910683 -1.2611275 0 -0.99999958 -0.00059694389 -0.00064760278 0 44726 1
4.8545928 0.12896177 -1.2713212 0 -0.99999958 -0.00059694389 -0.00064760278 0 44726 1
4.8546925 0.12881671 -1.2815149 0 -0.99999958 -0.00059694389 -0.00064760278 0 44726 1
4.8546982 0.12881669 -1.2815156 0 -0.99999928 -0.00083118532 -0.00087697903 0 44998 1
4.8546982 0.12881669 -1.2815156 0 -0.99999928 -0.00083118532 -0.00087697903 0 44998 1
4.8546882 0.13904983 -1.2811217 0 -0.99999928 -0.00083118532 -0.00087697903 0 44998 1
4.8546782 0.14928296 -1.2807279 0 -0.99999928 -0.00083118532 -0.00087697903 0 44998 1
4.8546681 0.1595161 -1.280334 0 -0.99999928 -0.00083118532 -0.00087697903 0 44998 1
4.8546581 0.16974923 -1.2799401 0 -0.99999928 -0.00083118532 -0.00087697903 0 44998 1
4.8546481 0.17998236 -1.2795463 0 -0.99999928 -0.00083118532 -0.00087697903 0 44998 1
4.8546381 0.1902155 -1.2791524 0 -0.99999928 -0.00083118532 -0.00087697903 0 44998 1
4.8546281 0.20044863 -1.2787585 0 -0.99999928 -0.00083118532 -0.00087697903 0 44998 1
4.8546181 0.21068177 -1.2783647 0 -0.99999928 -0.00083118532 -0.00087697903 0 44998 1
4.8546081 0.2209149 -1.2779708 0 -0.99999928 -0.00083118532 -0.00087697903 0 44998 1
4.854598 0.23114803 -1.2775769 0 -0.99999928 -0.00083118532 -0.00087697903 0 44998 1
4.854588 0.24138117 -1.2771831 0 -0.99999928 -0.00083118532 -0.00087697903 0 44998 1
4.854578 0.2516143 -1.2767892 0 -0.99999928 -0.00083118532 -0.00087697903 0 44998 1
4.854568 0.26184744 -1.2763953 0 -0.99999928 -0.00083118532 -0.00087697903 0 44998 1
4.854558 0.27208057 -1.2760015 0 -0.99999928 -0.00083118532 -0.00087697903 0 44998 1
4.854548 0.2823137 -1.2756076 0 -0.99999928 -0.00083118532 -0.00087697903 0 44998 1
4.854538 0.29254684 -1.2752137 0 -0.99999928 -0.00083118532 -0.00087697903 0 44998 1
4.854528 0.30277997 -1.2748199 0 -0.99999928 -0.00083118532 -0.00087697903 0 44998 1
4.8545179 0.31301311 -1.274426 0 -0.99999928 -0.00083118532 -0.00087697903 0 44998 1
4.8545079 0.32324624 -1.2740321 0 -0.99999928 -0.00083118532 -0.00087697903 0 44998 1
4.8544979 0.33347937 -1.2736382 0 -0.99999928 -0.00083118532 -0.00087697903 0 44998 1
4.8544879 0.34371251 -1.2732444 0 -0.99999928 -0.00083118532 -0.00087697903 0 44998 1
4.8544779 0.35394564 -1.2728505 0 -0.99999928 -0.00083118532 -0.00087697903 0 44998 1
4.8544679 0.36417878 -1.2724566 0 -0.99999928 -0.00083118532 -0.00087697903 0 44998 1
4.8544717 0.36417893 -1.2724568 0 -0.99999952 -0.00071186811 -0.00068348198 0 44989 1
4.8544717 0.36417893 -1.2724568 0 -0.99999952 -0.00071186811 -0.00068348198 0 44989 1
4.8543692 0.36366221 -1.261974 0 -0.99999952 -0.00071186811 -0.00068348198 0 44989 1
4.8542666 0.3631455 -1.2514912 0 -0.99999952 -0.00071186811 -0.00068348198 0 44989 1
4.8541641 0.36262879 -1.2410084 0 -0.99999952 -0.00071186811 -0.00068348198 0 44989 1
4.8540616 0.36211208 -1.2305256 0 -0.99999952 -0.00071186811 -0.00068348198 0 44989 1
4.8539591 0.36159536 -1.2200428 0 -0.99999952 -0.00071186811 -0.00068348198 0 44989 1
4.8538566 0.36107865 -1.20956 0 -0.99999952 -0.00071186811 -0.00068348198 0 44989 1
4.853754 0.36056194 -1.1990772 0 -0.99999952 -0.00071186811 -0.00068348198 0 44989 1
4.8536515 0.36004522 -1.1885945 0 -0.99999952 -0.00071186811 -0.00068348198 0 44989 1
4.853549 0.35952851 -1.1781117 0 -0.99999952 -0.00071186811 -0.00068348198 0 44989 1
4.8534465 0.3590118 -1.1676289 0 -0.99999952 -0.00071186811 -0.00068348198 0 44989 1
4.853344 0.35849509 -1.1571461 0 -0.99999952 -0.00071186811 -0.00068348198 0 44989 1
4.8532414 0.35797837 -1.1466633 0 -0.99999952 -0.00071186811 -0.00068348198 0 44989 1
4.8531389 0.35746166 -1.1361805 0 -0.99999952 -0.00071186811 -0.00068348198 0 44989 1
4.8530364 0.35694495 -1.1256977 0 -0.99999952 -0.00071186811 -0.00068348198 0 44989 1
4.8530388 0.35694495 -1.1256981 0 -0.99999928 -0.00084447011 -0.00084087771 0 44684 1
4.9742341 2.5539484 0.76616538 0 -0.9999994 -0.00076298753 -0.00075519335 0 47436 1
4.9742546 2.5440543 0.76466608 0 -0.9999994 -0.00076298753 -0.00075519335 0 47436 1
4.9742751 2.5341601 0.76316679 0 -0.9999994 -0.00076298753 -0.00075519335 0 47436 1
4.9742956 2.524266 0.76166749 0 -0.9999994 -0.00076298753 -0.00075519335 0 47436 1
4.9743161 2.5143719 0.76016819 0 -0.9999994 -0.00076298753 -0.00075519335 0 47436 1
4.9743366 2.5044777 0.7586689 0 -0.9999994 -0.00076298753 -0.00075519335 0 47436 1
4.9743571 2.4945836 0.7571696 0 -0.9999994 -0.00076298753 -0.00075519335 0 47436 1
4.9743776 2.4846895 0.75567031 0 -0.9999994 -0.00076298753 -0.00075519335 0 47436 1
4.9743981 2.4747953 0.75417101 0 -0.9999994 -0.00076298753 -0.00075519335 0 47436 1
4.9744186 2.4649012 0.75267172 0 -0.9999994 -0.00076298753 -0.00075519335 0 47436 1
4.9744391 2.4550071 0.75117242 0 -0.9999994 -0.00076298753 -0.00075519335 0 47436 1
4.9744596 2.4451129 0.74967313 0 -0.9999994 -0.00076298753 -0.00075519335 0 47436 1
4.9744802 2.4352188 0.74817383 0 -0.9999994 -0.00076298753 -0.00075519335 0 47436 1
4.9745007 2.4253247 0.74667454 0 -0.9999994 -0.00076298753 -0.00075519335 0 47436 1
4.9745212 2.4154305 0.74517524 0 -0.9999994 -0.00076298753 -0.00075519335 0 47436 1
4.9745417 2.4055364 0.74367595 0 -0.9999994 -0.00076298753 -0.00075519335 0 47436 1
4.9745622 2.3956423 0.74217665 0 -0.9999994 -0.00076298753 -0.00075519335 0 47436 1
4.9745827 2.3857481 0.74067736 0 -0.9999994 -0.00076298753 -0.00075519335 0 47436 1
4.9746032 2.375854 0.73917806 0 -0.9999994 -0.00076298753 -0.00075519335 0 47436 1
4.9746237 2.3659599 0.73767877 0 -0.9999994 -0.00076298753 -0.00075519335 0 47436 1
4.9746442 2.3560658 0.73617947 0 -0.9999994 -0.00076298753 -0.00075519335 0 47436 1
4.9746647 2.3461716 0.73468018 0 -0.9999994 -0.00076298753 -0.00075519335 0 47436 1
4.9746852 2.3362775 0.73318088 0 -0.9999994 -0.00076298753 -0.00075519335 0 47436 1
4.9747057 2.3263834 0.73168159 0 -0.9999994 -0.00076298753 -0.00075519335 0 47436 1
4.9747262 2.3164892 0.73018229 0 -0.9999994 -0.00076298753 -0.00075519335 0 47436 1
4.9747467 2.3065951 0.72868299 0 -0.9999994 -0.00076298753 -0.00075519335 0 47436 1
4.9747672 2.296701 0.7271837 0 -0.9999994 -0.00076298753 -0.00075519335 0 47436 1
4.9747877 2.2868068 0.7256844 0 -0.9999994 -0.00076298753 -0.00075519335 0 47436 1
4.9748082 2.2769127 0.72418511 0 -0.9999994 -0.00076298753 -0.00075519335 0 47436 1
4.9748287 2.2670186 0.72268581 0 -0.9999994 -0.00076298753 -0.00075519335 0 47436 1
4.9748302 2.2670217 0.72268546 0 -0.9999994 -0.00082470407 -0.00077499013 0 47800 1
4.9748302 2.2670217 0.72268546 0 -0.9999994 -0.00082470407 -0.00077499013 0 47800 1
4.9749303 2.2669542 0.71246529 0 -0.9999994 -0.00082470407 -0.00077499013 0 47800 1
4.9750304 2.2668867 0.70224512 0 -0.9999994 -0.00082470407 -0.00077499013 0 47800 1
4.9751306 2.2668192 0.69202495 0 -0.9999994 -0.00082470407 -0.00077499013 0 47800 1
4.9752307 2.2667518 0.68180478 0 -0.9999994 -0.00082470407 -0.00077499013 0 47800 1
4.9753308 2.2666843 0.67158461 0 -0.9999994 -0.00082470407 -0.00077499013 0 47800 1
4.975431 2.2666168 0.66136444 0 -0.9999994 -0.00082470407 -0.00077499013 0 47800 1
4.9755311 2.2665493 0.65114427 0 -0.9999994 -0.00082470407 -0.00077499013 0 47800 1
4.9756312 2.2664819 0.6409241 0 -0.9999994 -0.00082470407 -0.00077499013 0 47800 1
4.9757314 2.2664144 0.63070393 0 -0.9999994 -0.00082470407 -0.00077499013 0 47800 1
4.9758315 2.2663469 0.62048376 0 -0.9999994 -0.00082470407 -0.00077499013 0 47800 1
4.9759316 2.2662795 0.61026359 0 -0.9999994 -0.00082470407 -0.00077499013 0 47800 1
4.9760318 2.266212 0.60004342 0 -0.9999994 -0.00082470407 -0.00077499013 0 47800 1
4.9761319 2.2661445 0.58982325 0 -0.9999994 -0.00082470407 -0.00077499013 0 47800 1
4.9762321 2.266077 0.57960308 0 -0.9999994 -0.00082470407 -0.00077499013 0 47800 1
4.9763322 2.2660096 0.56938291 0 -0.9999994 -0.00082470407 -0.00077499013 0 47800 1
4.9763288 2.2660091 0.56938303 0 -0.9999994 -0.00080292928 -0.0007506698 0 47905 1
4.9763288 2.2660091 0.56938303 0 -0.9999994 -0.00080292928 -0.0007506698 0 47905 1
4.9762907 2.2756548 0.57272619 0 -0.9999994 -0.00080292928 -0.0007506698 0 47905 1
4.9762526 2.2853005 0.57606936 0 -0.9999994 -0.00080292928 -0.0007506698 0 47905 1
4.9762144 2.2949462 0.57941252 0 -0.9999994 -0.00080292928 -0.0007506698 0 47905 1
4.9761763 2.3045919 0.58275568 0 -0.9999994 -0.00080292928 -0.0007506698 0 47905 1
4.9761381 2.3142376 0.58609885 0 -0.9999994 -0.00080292928 -0.0007506698 0 47905 1
4.9761 2.3238833 0.58944201 0 -0.9999994 -0.00080292928 -0.0007506698 0 47905 1
4.9760618 2.333529 0.59278518 0 -0.9999994 -0.00080292928 -0.0007506698 0 47905 1
4.9760237 2.3431747 0.59612834 0 -0.9999994 -0.00080292928 -0.0007506698 0 47905 1
4.9759855 2.3528204 0.59947151 0 -0.9999994 -0.00080292928 -0.0007506698 0 47905 1
4.9759474 2.3624661 0.60281467 0 -0.9999994 -0.00080292928 -0.0007506698 0 47905 1
4.9759092 2.3721118 0.60615784 0 -0.9999994 -0.00080292928 -0.0007506698 0 47905 1
4.9758711 2.3817575 0.609501 0 -0.9999994 -0.00080292928 -0.0007506698 0 47905 1
4.9758329 2.3914032 0.61284417 0 -0.9999994 -0.00080292928 -0.0007506698 0 47905 1
4.9757948 2.4010489 0.61618733 0 -0.9999994 -0.00080292928 -0.0007506698 0 47905 1
4.9757566 2.4106946 0.6195305 0 -0.9999994 -0.00080292928 -0.0007506698 0 47905 1
4.9757185 2.4203403 0.62287366 0 -0.9999994 -0.00080292928 -0.0007506698 0 47905 1
4.9756804 2.429986 0.62621683 0 -0.9999994 -0.00080292928 -0.0007506698 0 47905 1
4.9756422 2.4396317 0.62955999 0 -0.9999994 -0.00080292928 -0.0007506698 0 47905 1
4.9756041 2.4492774 0.63290316 0 -0.9999994 -0.00080292928 -0.0007506698 0 47905 1
4.9755659 2.4589231 0.63624632 0 -0.9999994 -0.00080292928 -0.0007506698 0 47905 1
4.9755278 2.4685688 0.63958949 0 -0.9999994 -0.00080292928 -0.0007506698 0 47905 1
4.9754896 2.4782145 0.64293265 0 -0.9999994 -0.00080292928 -0.0007506698 0 47905 1
4.9754515 2.4878602 0.64627582 0 -0.9999994 -0.00080292928 -0.0007506698 0 47905 1
4.9754133 2.4975059 0.64961898 0 -0.9999994 -0.00080292928 -0.0007506698 0 47905 1
4.9753752 2.5071516 0.65296215 0 -0.9999994 -0.00080292928 -0.0007506698 0 47905 1
4.975337 2.5167973 0.65630531 0 -0.9999994 -0.00080292928 -0.0007506698 0 47905 1
4.9752989 2.526443 0.65964848 0 -0.9999994 -0.00080292928 -0.0007506698 0 47905 1
4.9752927 2.526444 0.65964901 0 -0.99999928 -0.00078721839 -0.00082608877 0 47670 1
4.9752927 2.526444 0.65964901 0 -0.99999928 -0.00078721839 -0.00082608877 0 47670 1
4.9751964 2.5289443 0.66933233 0 -0.99999928 -0.00078721839 -0.00082608877 0 47670 1
4.9751 2.5314445 0.67901564 0 -0.99999928 -0.00078721839 -0.00082608877 0 47670 1
4.9750037 2.5339448 0.68869895 0 -0.99999928 -0.00078721839 -0.00082608877 0 47670 1
4.9749074 2.5364451 0.69838226 0 -0.99999928 -0.00078721839 -0.00082608877 0 47670 1
4.9748111 2.5389454 0.70806557 0 -0.99999928 -0.00078721839 -0.00082608877 0 47670 1
4.9747148 2.5414457 0.71774888 0 -0.99999928 -0.00078721839 -0.00082608877 0 47670 1
4.9746184 2.543946 0.72743219 0 -0.99999928 -0.00078721839 -0.00082608877 0 47670 1
4.9745221 2.5464463 0.7371155 0 -0.99999928 -0.00078721839 -0.00082608877 0 47670 1
4.9744258 2.5489466 0.74679881 0 -0.99999928 -0.00078721839 -0.00082608877 0 47670 1
4.9743295 2.5514469 0.75648212 0 -0.99999928 -0.00078721839 -0.00082608877 0 47670 1
4.9742332 2.5539472 0.76616544 0 -0.99999928 -0.00078721839 -0.00082608877 0 47670 1
4.9742341 2.5539484 0.76616538 0 -0.9999994 -0.00076298753 -0.00075519335 0 47436 1
5.0478306 2.1800067 0.72812605 0 -0.99999928 -0.00081278622 -0.000823337 0 49618 1
5.0478477 2.1700215 0.72695911 0 -0.99999928 -0.00081278622 -0.000823337 0 49618 1
5.0478649 2.1600363 0.72579217 0 -0.99999928 -0.00081278622 -0.000823337 0 49618 1
5.0478821 2.1500511 0.72462523 0 -0.99999928 -0.00081278622 -0.000823337 0 49618 1
5.0478992 2.1400659 0.72345829 0 -0.99999928 -0.00081278622 -0.000823337 0 49618 1
5.0479164 2.1300807 0.72229135 0 -0.99999928 -0.00081278622 -0.000823337 0 49618 1
5.0479336 2.1200955 0.72112441 0 -0.99999928 -0.00081278622 -0.000823337 0 49618 1
5.0479507 2.1101103 0.71995747 0 -0.99999928 -0.00081278622 -0.000823337 0 49618 1
5.0479679 2.1001251 0.71879053 0 -0.99999928 -0.00081278622 -0.000823337 0 49618 1
5.0479851 2.0901399 0.71762359 0 -0.99999928 -0.00081278622 -0.000823337 0 49618 1
5.0480022 2.0801547 0.71645665 0 -0.99999928 -0.00081278622 -0.000823337 0 49618 1
5.0480194 2.0701694 0.71528971 0 -0.99999928 -0.00081278622 -0.000823337 0 49618 1
5.0480366 2.0601842 0.71412277 0 -0.99999928 -0.00081278622 -0.000823337 0 49618 1
5.0480537 2.050199 0.71295583 0 -0.99999928 -0.00081278622 -0.000823337 0 49618 1
5.0480709 2.0402138 0.71178889 0 -0.99999928 -0.00081278622 -0.000823337 0 49618 1
5.0480881 2.0302286 0.71062195 0 -0.99999928 -0.00081278622 -0.000823337 0 49618 1
5.0481052 2.0202434 0.70945501 0 -0.99999928 -0.00081278622 -0.000823337 0 49618 1
5.0481224 2.0102582 0.70828807 0 -0.99999928 -0.00081278622 -0.000823337 0 49618 1
5.0481396 2.000273 0.70712113 0 -0.99999928 -0.00081278622 -0.000823337 0 49618 1
5.0481567 1.9902877 0.70595419 0 -0.99999928 -0.00081278622 -0.000823337 0 49618 1
5.0481739 1.9803023 0.70478725 0 -0.99999928 -0.00081278622 -0.000823337 0 49618 1
5.0481911 1.970317 0.70362031 0 -0.99999928 -0.00081278622 -0.000823337 0 49618 1
5.0482082 1.9603317 0.70245337 0 -0.99999928 -0.00081278622 -0.000823337 0 49618 1
5.0482121 1.9603299 0.7024529 0 -0.99999934 -0.000781729 -0.00083916844 0 49759 1
5.0482121 1.9603299 0.7024529 0 -0.99999934 -0.000781729 -0.00083916844 0 49759 1
5.048315 1.9595506 0.6919629 0 -0.99999934 -0.000781729 -0.00083916844 0 49759 1
5.048418 1.9587713 0.6814729 0 -0.99999934 -0.000781729 -0.00083916844 0 49759 1
5.048521 1.9579921 0.6709829 0 -0.99999934 -0.000781729 -0.00083916844 0 49759 1
5.048624 1.9572128 0.6604929 0 -0.99999934 -0.000781729 -0.00083916844 0 49759 1
5.048727 1.9564335 0.6500029 0 -0.99999934 -0.000781729 -0.00083916844 0 49759 1
5.04883 1.9556543 0.6395129 0 -0.99999934 -0.000781729 -0.00083916844 0 49759 1
5.048933 1.954875 0.6290229 0 -0.99999934 -0.000781729 -0.00083916844 0 49759 1
5.049036 1.9540957 0.6185329 0 -0.99999934 -0.000781729 -0.00083916844 0 49759 1
5.049139 1.9533165 0.6080429 0 -0.99999934 -0.000781729 -0.00083916844 0 49759 1
5.049242 1.9525372 0.5975529 0 -0.99999934 -0.000781729 -0.00083916844 0 49759 1
5.049345 1.9517579 0.5870629 0 -0.99999934 -0.000781729 -0.00083916844 0 49759 1
5.049448 1.9509786 0.5765729 0 -0.99999934 -0.000781729 -0.00083916844 0 49759 1
5.049551 1.9501994 0.56608289 0 -0.99999934 -0.000781729 -0.00083916844 0 49759 1
5.049654 1.9494201 0.55559289 0 -0.99999934 -0.000781729 -0.00083916844 0 49759 1
5.049757 1.9486408 0.54510289 0 -0.99999934 -0.000781729 -0.00083916844 0 49759 1
5.04986 1.9478616 0.53461289 0 -0.99999934 -0.000781729 -0.00083916844 0 49759 1
5.0498619 1.9478624 0.53461331 0 -0.9999994 -0.00080876792 -0.00070667674 0 50003 1
5.0498619 1.9478624 0.53461331 0 -0.9999994 -0.00080876792 -0.00070667674 0 50003 1
5.0498257 1.9574567 0.53774589 0 -0.9999994 -0.00080876792 -0.00070667674 0 50003 1
5.0497894 1.967051 0.54087847 0 -0.9999994 -0.00080876792 -0.00070667674 0 50003 1
5.0497532 1.9766454 0.54401106 0 -0.9999994 -0.00080876792 -0.00070667674 0 50003 1
5.0497169 1.9862397 0.54714364 0 -0.9999994 -0.00080876792 -0.00070667674 0 50003 1
5.0496807 1.995834 0.55027622 0 -0.9999994 -0.00080876792 -0.00070667674 0 50003 1
5.0496445 2.0054283 0.5534088 0 -0.9999994 -0.00080876792 -0.00070667674 0 50003 1
5.0496082 2.0150225 0.55654138 0 -0.9999994 -0.00080876792 -0.00070667674 0 50003 1
5.049572 2.0246167 0.55967396 0 -0.9999994 -0.00080876792 -0.00070667674 0 50003 1
5.0495358 2.0342109 0.56280655 0 -0.9999994 -0.00080876792 -0.00070667674 0 50003 1
5.0494995 2.0438051 0.56593913 0 -0.9999994 -0.00080876792 -0.00070667674 0 50003 1
5.0494633 2.0533993 0.56907171 0 -0.9999994 -0.00080876792 -0.00070667674 0 50003 1
