# .PCD v0.7 - Point Cloud Data file format
VERSION 0.7
FIELDS x y z rgb normal_x normal_y normal_z curvature id confidence
SIZE 4 4 4 4 4 4 4 4 4 4
TYPE F F F F F F F F I F
COUNT 1 1 1 1 1 1 1 1 1 1
WIDTH 600
HEIGHT 1
VIEWPOINT 0 0 0 1 0 0 0
POINTS 600
DATA ascii
0.93969893 0.51980948 -0.18657254 0 -0.89668339 -0.088655822 0.43370396 0 808 1
0.94045544 0.51927996 -0.17585725 0 -0.89668339 -0.088655822 0.43370396 0 808 1
0.94121194 0.51875043 -0.16514196 0 -0.89668339 -0.088655822 0.43370396 0 808 1
0.94196844 0.5182209 -0.15442666 0 -0.89668339 -0.088655822 0.43370396 0 808 1
0.94272494 0.51769137 -0.14371137 0 -0.89668339 -0.088655822 0.43370396 0 808 1
0.94348145 0.51716185 -0.13299608 0 -0.89668339 -0.088655822 0.43370396 0 808 1
0.94423795 0.51663232 -0.12228079 0 -0.89668339 -0.088655822 0.43370396 0 808 1
0.94499445 0.51610279 -0.1115655 0 -0.89668339 -0.088655822 0.43370396 0 808 1
0.94575095 0.51557326 -0.10085021 0 -0.89668339 -0.088655822 0.43370396 0 808 1
0.94650745 0.51504374 -0.090134919 0 -0.89668339 -0.088655822 0.43370396 0 808 1
0.94726396 0.51451421 -0.079419628 0 -0.89668339 -0.088655822 0.43370396 0 808 1
0.94726366 0.51451409 -0.079419613 0 -0.98531538 -0.0076822764 0.17057121 0 1276 1
1.2443506 0.64330965 0.044430003 0 -0.9981879 0.047051262 0.03750927 0 1599 1
1.2445588 0.63325226 0.044488613 0 -0.9981879 0.047051262 0.03750927 0 1599 1
1.2447671 0.62319487 0.044547223 0 -0.9981879 0.047051262 0.03750927 0 1599 1
1.2449753 0.61313748 0.044605833 0 -0.9981879 0.047051262 0.03750927 0 1599 1
1.2451836 0.60308009 0.044664443 0 -0.9981879 0.047051262 0.03750927 0 1599 1
1.2453918 0.5930227 0.044723053 0 -0.9981879 0.047051262 0.03750927 0 1599 1
1.2456001 0.58296531 0.044781663 0 -0.9981879 0.047051262 0.03750927 0 1599 1
1.2458084 0.57290792 0.044840273 0 -0.9981879 0.047051262 0.03750927 0 1599 1
1.2460166 0.56285053 0.044898883 0 -0.9981879 0.047051262 0.03750927 0 1599 1
1.2462249 0.55279315 0.044957493 0 -0.9981879 0.047051262 0.03750927 0 1599 1
1.2464331 0.54273576 0.045016102 0 -0.9981879 0.047051262 0.03750927 0 1599 1
1.2466414 0.53267837 0.045074712 0 -0.9981879 0.047051262 0.03750927 0 1599 1
1.2468497 0.52262098 0.045133322 0 -0.9981879 0.047051262 0.03750927 0 1599 1
1.2470579 0.51256359 0.045191932 0 -0.9981879 0.047051262 0.03750927 0 1599 1
1.2472662 0.5025062 0.045250542 0 -0.9981879 0.047051262 0.03750927 0 1599 1
1.2474744 0.49244884 0.045309152 0 -0.9981879 0.047051262 0.03750927 0 1599 1
1.2476827 0.48239148 0.045367762 0 -0.9981879 0.047051262 0.03750927 0 1599 1
1.2478909 0.47233412 0.045426372 0 -0.9981879 0.047051262 0.03750927 0 1599 1
1.2480992 0.46227676 0.045484982 0 -0.9981879 0.047051262 0.03750927 0 1599 1
1.2483075 0.4522194 0.045543592 0 -0.9981879 0.047051262 0.03750927 0 1599 1
1.2485157 0.44216204 0.045602202 0 -0.9981879 0.047051262 0.03750927 0 1599 1
1.248724 0.43210468 0.045660812 0 -0.9981879 0.047051262 0.03750927 0 1599 1
1.2489322 0.42204732 0.045719422 0 -0.9981879 0.047051262 0.03750927 0 1599 1
1.2491405 0.41198996 0.045778032 0 -0.9981879 0.047051262 0.03750927 0 1599 1
1.2493488 0.4019326 0.045836642 0 -0.9981879 0.047051262 0.03750927 0 1599 1
1.249557 0.39187524 0.045895252 0 -0.9981879 0.047051262 0.03750927 0 1599 1
1.2497653 0.38181788 0.045953862 0 -0.9981879 0.047051262 0.03750927 0 1599 1
1.2499735 0.37176052 0.046012472 0 -0.9981879 0.047051262 0.03750927 0 1599 1
1.2501818 0.36170316 0.046071082 0 -0.9981879 0.047051262 0.03750927 0 1599 1
1.2503901 0.3516458 0.046129692 0 -0.9981879 0.047051262 0.03750927 0 1599 1
1.2505983 0.34158844 0.046188302 0 -0.9981879 0.047051262 0.03750927 0 1599 1
1.2508066 0.33153108 0.046246912 0 -0.9981879 0.047051262 0.03750927 0 1599 1
1.2510148 0.32147372 0.046305522 0 -0.9981879 0.047051262 0.03750927 0 1599 1
1.2512231 0.31141636 0.046364132 0 -0.9981879 0.047051262 0.03750927 0 1599 1
1.2514313 0.301359 0.046422742 0 -0.9981879 0.047051262 0.03750927 0 1599 1
1.2516396 0.29130164 0.046481352 0 -0.9981879 0.047051262 0.03750927 0 1599 1
1.2518479 0.28124428 0.046539962 0 -0.9981879 0.047051262 0.03750927 0 1599 1
1.2520561 0.27118692 0.046598572 0 -0.9981879 0.047051262 0.03750927 0 1599 1
1.2522644 0.26112956 0.046657182 0 -0.9981879 0.047051262 0.03750927 0 1599 1
1.2524726 0.2510722 0.046715792 0 -0.9981879 0.047051262 0.03750927 0 1599 1
1.2526809 0.24101484 0.046774402 0 -0.9981879 0.047051262 0.03750927 0 1599 1
1.2528892 0.23095748 0.046833012 0 -0.9981879 0.047051262 0.03750927 0 1599 1
1.2530974 0.22090012 0.046891622 0 -0.9981879 0.047051262 0.03750927 0 1599 1
1.2533057 0.21084276 0.046950232 0 -0.9981879 0.047051262 0.03750927 0 1599 1
1.2535139 0.2007854 0.047008842 0 -0.9981879 0.047051262 0.03750927 0 1599 1
1.2537222 0.19072804 0.047067452 0 -0.9981879 0.047051262 0.03750927 0 1599 1
1.2539304 0.18067068 0.047126062 0 -0.9981879 0.047051262 0.03750927 0 1599 1
1.2541387 0.17061332 0.047184672 0 -0.9981879 0.047051262 0.03750927 0 1599 1
1.254347 0.16055596 0.047243282 0 -0.9981879 0.047051262 0.03750927 0 1599 1
1.2545552 0.1504986 0.047301892 0 -0.9981879 0.047051262 0.03750927 0 1599 1
1.2547635 0.14044124 0.047360502 0 -0.9981879 0.047051262 0.03750927 0 1599 1
1.2549717 0.13038388 0.047419112 0 -0.9981879 0.047051262 0.03750927 0 1599 1
1.25518 0.12032651 0.047477722 0 -0.9981879 0.047051262 0.03750927 0 1599 1
1.2553883 0.11026914 0.047536332 0 -0.9981879 0.047051262 0.03750927 0 1599 1
1.2555965 0.10021178 0.047594942 0 -0.9981879 0.047051262 0.03750927 0 1599 1
1.2558048 0.090154409 0.047653552 0 -0.9981879 0.047051262 0.03750927 0 1599 1
1.256013 0.080097042 0.047712162 0 -0.9981879 0.047051262 0.03750927 0 1599 1
1.2562213 0.070039675 0.047770772 0 -0.9981879 0.047051262 0.03750927 0 1599 1
1.2564296 0.059982311 0.047829382 0 -0.9981879 0.047051262 0.03750927 0 1599 1
1.2566378 0.049924947 0.047887992 0 -0.9981879 0.047051262 0.03750927 0 1599 1
1.2568461 0.039867584 0.047946602 0 -0.9981879 0.047051262 0.03750927 0 1599 1
1.2570543 0.02981022 0.048005212 0 -0.9981879 0.047051262 0.03750927 0 1599 1
1.2572626 0.019752856 0.048063822 0 -0.9981879 0.047051262 0.03750927 0 1599 1
1.2574708 0.0096954918 0.048122432 0 -0.9981879 0.047051262 0.03750927 0 1599 1
1.2576791 -0.00036187284 0.048181042 0 -0.9981879 0.047051262 0.03750927 0 1599 1
1.2578874 -0.010419237 0.048239652 0 -0.9981879 0.047051262 0.03750927 0 1599 1
1.2580956 -0.020476602 0.048298262 0 -0.9981879 0.047051262 0.03750927 0 1599 1
1.2583039 -0.030533966 0.048356872 0 -0.9981879 0.047051262 0.03750927 0 1599 1
1.2585121 -0.040591329 0.048415482 0 -0.9981879 0.047051262 0.03750927 0 1599 1
1.2587204 -0.050648693 0.048474092 0 -0.9981879 0.047051262 0.03750927 0 1599 1
1.2589287 -0.060706057 0.048532702 0 -0.9981879 0.047051262 0.03750927 0 1599 1
1.2591369 -0.070763424 0.048591312 0 -0.9981879 0.047051262 0.03750927 0 1599 1
1.2593452 -0.080820791 0.048649922 0 -0.9981879 0.047051262 0.03750927 0 1599 1
1.2595534 -0.090878159 0.048708532 0 -0.9981879 0.047051262 0.03750927 0 1599 1
1.2597617 -0.10093553 0.048767142 0 -0.9981879 0.047051262 0.03750927 0 1599 1
1.2599699 -0.11099289 0.048825752 0 -0.9981879 0.047051262 0.03750927 0 1599 1
1.2601782 -0.12105026 0.048884362 0 -0.9981879 0.047051262 0.03750927 0 1599 1
1.2603865 -0.13110763 0.048942972 0 -0.9981879 0.047051262 0.03750927 0 1599 1
1.2605947 -0.14116499 0.049001582 0 -0.9981879 0.047051262 0.03750927 0 1599 1
1.260803 -0.15122235 0.049060192 0 -0.9981879 0.047051262 0.03750927 0 1599 1
1.2610112 -0.16127971 0.049118802 0 -0.9981879 0.047051262 0.03750927 0 1599 1
1.2612195 -0.17133707 0.049177412 0 -0.9981879 0.047051262 0.03750927 0 1599 1
1.2614278 -0.18139443 0.049236022 0 -0.9981879 0.047051262 0.03750927 0 1599 1
1.261636 -0.19145179 0.049294632 0 -0.9981879 0.047051262 0.03750927 0 1599 1
1.2618443 -0.20150915 0.049353242 0 -0.9981879 0.047051262 0.03750927 0 1599 1
1.2620525 -0.21156651 0.049411852 0 -0.9981879 0.047051262 0.03750927 0 1599 1
1.2622608 -0.22162387 0.049470462 0 -0.9981879 0.047051262 0.03750927 0 1599 1
1.2624691 -0.23168123 0.049529072 0 -0.9981879 0.047051262 0.03750927 0 1599 1
1.2626773 -0.24173859 0.049587682 0 -0.9981879 0.047051262 0.03750927 0 1599 1
1.2628856 -0.25179595 0.049646292 0 -0.9981879 0.047051262 0.03750927 0 1599 1
1.2630938 -0.26185331 0.049704902 0 -0.9981879 0.047051262 0.03750927 0 1599 1
1.2633021 -0.27191067 0.049763512 0 -0.9981879 0.047051262 0.03750927 0 1599 1
1.2635103 -0.28196803 0.049822122 0 -0.9981879 0.047051262 0.03750927 0 1599 1
1.2637186 -0.29202539 0.049880732 0 -0.9981879 0.047051262 0.03750927 0 1599 1
1.2639269 -0.30208275 0.049939342 0 -0.9981879 0.047051262 0.03750927 0 1599 1
1.2641351 -0.31214011 0.049997952 0 -0.9981879 0.047051262 0.03750927 0 1599 1
1.2643434 -0.32219747 0.050056562 0 -0.9981879 0.047051262 0.03750927 0 1599 1
1.2645516 -0.33225483 0.050115172 0 -0.9981879 0.047051262 0.03750927 0 1599 1
1.2647599 -0.34231219 0.050173782 0 -0.9981879 0.047051262 0.03750927 0 1599 1
1.2649682 -0.35236955 0.050232392 0 -0.9981879 0.047051262 0.03750927 0 1599 1
1.2651764 -0.36242691 0.050291002 0 -0.9981879 0.047051262 0.03750927 0 1599 1
1.2653847 -0.37248427 0.050349612 0 -0.9981879 0.047051262 0.03750927 0 1599 1
1.2655929 -0.38254163 0.050408222 0 -0.9981879 0.047051262 0.03750927 0 1599 1
1.2658012 -0.39259899 0.050466832 0 -0.9981879 0.047051262 0.03750927 0 1599 1
1.2660094 -0.40265635 0.050525442 0 -0.9981879 0.047051262 0.03750927 0 1599 1
1.2662177 -0.41271371 0.050584052 0 -0.9981879 0.047051262 0.03750927 0 1599 1
1.266426 -0.42277107 0.050642662 0 -0.9981879 0.047051262 0.03750927 0 1599 1
1.2666342 -0.43282843 0.050701272 0 -0.9981879 0.047051262 0.03750927 0 1599 1
1.2668425 -0.44288579 0.050759882 0 -0.9981879 0.047051262 0.03750927 0 1599 1
1.2670507 -0.45294315 0.050818492 0 -0.9981879 0.047051262 0.03750927 0 1599 1
1.267259 -0.46300051 0.050877102 0 -0.9981879 0.047051262 0.03750927 0 1599 1
1.2674673 -0.47305787 0.050935712 0 -0.9981879 0.047051262 0.03750927 0 1599 1
1.2676755 -0.48311523 0.050994322 0 -0.9981879 0.047051262 0.03750927 0 1599 1
1.2678838 -0.49317259 0.051052932 0 -0.9981879 0.047051262 0.03750927 0 1599 1
1.2678863 -0.49317262 0.051052909 0 -0.99590719 -0.011454434 0.089653134 0 2163 1
1.2678863 -0.49317262 0.051052909 0 -0.99590719 -0.011454434 0.089653134 0 2163 1
1.2672461 -0.4932051 0.040967882 0 -0.99590719 -0.011454434 0.089653134 0 2163 1
1.266606 -0.49323758 0.030882852 0 -0.99590719 -0.011454434 0.089653134 0 2163 1
1.2659658 -0.49327007 0.020797823 0 -0.99590719 -0.011454434 0.089653134 0 2163 1
1.2653257 -0.49330255 0.010712793 0 -0.99590719 -0.011454434 0.089653134 0 2163 1
1.2646855 -0.49333504 0.00062776357 0 -0.99590719 -0.011454434 0.089653134 0 2163 1
1.2640454 -0.49336752 -0.009457266 0 -0.99590719 -0.011454434 0.089653134 0 2163 1
1.2634052 -0.49340001 -0.019542295 0 -0.99590719 -0.011454434 0.089653134 0 2163 1
1.262765 -0.49343249 -0.029627325 0 -0.99590719 -0.011454434 0.089653134 0 2163 1
1.2621249 -0.49346498 -0.039712355 0 -0.99590719 -0.011454434 0.089653134 0 2163 1
1.2614847 -0.49349746 -0.049797386 0 -0.99590719 -0.011454434 0.089653134 0 2163 1
1.2608446 -0.49352995 -0.059882417 0 -0.99590719 -0.011454434 0.089653134 0 2163 1
1.2602044 -0.49356243 -0.069967449 0 -0.99590719 -0.011454434 0.089653134 0 2163 1
1.2595643 -0.49359491 -0.08005248 0 -0.99590719 -0.011454434 0.089653134 0 2163 1
1.2595638 -0.49359497 -0.080052465 0 -0.9995712 0.0045672976 0.028921297 0 2114 1
1.2595638 -0.49359497 -0.080052465 0 -0.9995712 0.0045672976 0.028921297 0 2114 1
1.2593806 -0.48356128 -0.079900645 0 -0.9995712 0.0045672976 0.028921297 0 2114 1
1.2591974 -0.47352758 -0.079748824 0 -0.9995712 0.0045672976 0.028921297 0 2114 1
1.2590141 -0.46349388 -0.079597004 0 -0.9995712 0.0045672976 0.028921297 0 2114 1
1.2588309 -0.45346019 -0.079445183 0 -0.9995712 0.0045672976 0.028921297 0 2114 1
1.2586477 -0.44342649 -0.079293363 0 -0.9995712 0.0045672976 0.028921297 0 2114 1
1.2584645 -0.43339279 -0.079141542 0 -0.9995712 0.0045672976 0.028921297 0 2114 1
1.2582812 -0.4233591 -0.078989722 0 -0.9995712 0.0045672976 0.028921297 0 2114 1
1.258098 -0.4133254 -0.078837901 0 -0.9995712 0.0045672976 0.028921297 0 2114 1
1.2579148 -0.4032917 -0.078686081 0 -0.9995712 0.0045672976 0.028921297 0 2114 1
1.2577316 -0.39325801 -0.07853426 0 -0.9995712 0.0045672976 0.028921297 0 2114 1
1.2575483 -0.38322431 -0.07838244 0 -0.9995712 0.0045672976 0.028921297 0 2114 1
1.2573651 -0.37319061 -0.078230619 0 -0.9995712 0.0045672976 0.028921297 0 2114 1
1.2571819 -0.36315691 -0.078078799 0 -0.9995712 0.0045672976 0.028921297 0 2114 1
1.2569987 -0.35312322 -0.077926978 0 -0.9995712 0.0045672976 0.028921297 0 2114 1
1.2568154 -0.34308952 -0.077775158 0 -0.9995712 0.0045672976 0.028921297 0 2114 1
1.2566322 -0.33305582 -0.077623338 0 -0.9995712 0.0045672976 0.028921297 0 2114 1
1.256449 -0.32302213 -0.077471517 0 -0.9995712 0.0045672976 0.028921297 0 2114 1
1.2562658 -0.31298843 -0.077319697 0 -0.9995712 0.0045672976 0.028921297 0 2114 1
1.2560825 -0.30295473 -0.077167876 0 -0.9995712 0.0045672976 0.028921297 0 2114 1
1.2558993 -0.29292104 -0.077016056 0 -0.9995712 0.0045672976 0.028921297 0 2114 1
1.2557161 -0.28288734 -0.076864235 0 -0.9995712 0.0045672976 0.028921297 0 2114 1
1.2555329 -0.27285364 -0.076712415 0 -0.9995712 0.0045672976 0.028921297 0 2114 1
1.2553496 -0.26281995 -0.076560594 0 -0.9995712 0.0045672976 0.028921297 0 2114 1
1.2551664 -0.25278625 -0.076408774 0 -0.9995712 0.0045672976 0.028921297 0 2114 1
1.2549832 -0.24275255 -0.076256953 0 -0.9995712 0.0045672976 0.028921297 0 2114 1
1.2548 -0.23271886 -0.076105133 0 -0.9995712 0.0045672976 0.028921297 0 2114 1
1.2546167 -0.22268516 -0.075953312 0 -0.9995712 0.0045672976 0.028921297 0 2114 1
1.2544335 -0.21265146 -0.075801492 0 -0.9995712 0.0045672976 0.028921297 0 2114 1
1.2542503 -0.20261776 -0.075649671 0 -0.9995712 0.0045672976 0.028921297 0 2114 1
1.2540671 -0.19258407 -0.075497851 0 -0.9995712 0.0045672976 0.028921297 0 2114 1
1.2538838 -0.18255037 -0.07534603 0 -0.9995712 0.0045672976 0.028921297 0 2114 1
1.2537006 -0.17251667 -0.07519421 0 -0.9995712 0.0045672976 0.028921297 0 2114 1
1.2535174 -0.16248298 -0.075042389 0 -0.9995712 0.0045672976 0.028921297 0 2114 1
1.2533342 -0.15244928 -0.074890569 0 -0.9995712 0.0045672976 0.028921297 0 2114 1
1.2531509 -0.14241558 -0.074738748 0 -0.9995712 0.0045672976 0.028921297 0 2114 1
1.2529677 -0.13238189 -0.074586928 0 -0.9995712 0.0045672976 0.028921297 0 2114 1
1.2527845 -0.1223482 -0.074435107 0 -0.9995712 0.0045672976 0.028921297 0 2114 1
1.2526013 -0.11231451 -0.074283287 0 -0.9995712 0.0045672976 0.028921297 0 2114 1
1.252418 -0.10228082 -0.074131466 0 -0.9995712 0.0045672976 0.028921297 0 2114 1
1.2522348 -0.092247128 -0.073979646 0 -0.9995712 0.0045672976 0.028921297 0 2114 1
1.2520516 -0.082213439 -0.073827825 0 -0.9995712 0.0045672976 0.028921297 0 2114 1
1.2518684 -0.07217975 -0.073676005 0 -0.9995712 0.0045672976 0.028921297 0 2114 1
1.2516851 -0.062146056 -0.073524185 0 -0.9995712 0.0045672976 0.028921297 0 2114 1
1.2515019 -0.052112363 -0.073372364 0 -0.9995712 0.0045672976 0.028921297 0 2114 1
1.2513187 -0.04207867 -0.073220544 0 -0.9995712 0.0045672976 0.028921297 0 2114 1
1.2511355 -0.032044977 -0.073068723 0 -0.9995712 0.0045672976 0.028921297 0 2114 1
1.2509522 -0.022011284 -0.072916903 0 -0.9995712 0.0045672976 0.028921297 0 2114 1
1.250769 -0.011977592 -0.072765082 0 -0.9995712 0.0045672976 0.028921297 0 2114 1
1.2505858 -0.0019438993 -0.072613262 0 -0.9995712 0.0045672976 0.028921297 0 2114 1
1.2504026 0.0080897929 -0.072461441 0 -0.9995712 0.0045672976 0.028921297 0 2114 1
1.2502193 0.018123485 -0.072309621 0 -0.9995712 0.0045672976 0.028921297 0 2114 1
1.2500361 0.028157178 -0.0721578 0 -0.9995712 0.0045672976 0.028921297 0 2114 1
1.2498529 0.038190871 -0.07200598 0 -0.9995712 0.0045672976 0.028921297 0 2114 1
1.2496697 0.048224565 -0.071854159 0 -0.9995712 0.0045672976 0.028921297 0 2114 1
1.2494864 0.058258258 -0.071702339 0 -0.9995712 0.0045672976 0.028921297 0 2114 1
1.2493032 0.068291947 -0.071550518 0 -0.9995712 0.0045672976 0.028921297 0 2114 1
1.24912 0.078325637 -0.071398698 0 -0.9995712 0.0045672976 0.028921297 0 2114 1
1.2489368 0.088359326 -0.071246877 0 -0.9995712 0.0045672976 0.028921297 0 2114 1
1.2487535 0.098393016 -0.071095057 0 -0.9995712 0.0045672976 0.028921297 0 2114 1
1.2485703 0.10842671 -0.070943236 0 -0.9995712 0.0045672976 0.028921297 0 2114 1
1.2483871 0.11846039 -0.070791416 0 -0.9995712 0.0045672976 0.028921297 0 2114 1
1.2482039 0.12849408 -0.070639595 0 -0.9995712 0.0045672976 0.028921297 0 2114 1
1.2480206 0.13852778 -0.070487775 0 -0.9995712 0.0045672976 0.028921297 0 2114 1
1.2478374 0.14856148 -0.070335954 0 -0.9995712 0.0045672976 0.028921297 0 2114 1
1.2476542 0.15859517 -0.070184134 0 -0.9995712 0.0045672976 0.028921297 0 2114 1
1.247471 0.16862887 -0.070032313 0 -0.9995712 0.0045672976 0.028921297 0 2114 1
1.2472878 0.17866257 -0.069880493 0 -0.9995712 0.0045672976 0.028921297 0 2114 1
1.2471045 0.18869627 -0.069728673 0 -0.9995712 0.0045672976 0.028921297 0 2114 1
1.2469213 0.19872996 -0.069576852 0 -0.9995712 0.0045672976 0.028921297 0 2114 1
1.2467381 0.20876366 -0.069425032 0 -0.9995712 0.0045672976 0.028921297 0 2114 1
1.2465549 0.21879736 -0.069273211 0 -0.9995712 0.0045672976 0.028921297 0 2114 1
1.2463716 0.22883105 -0.069121391 0 -0.9995712 0.0045672976 0.028921297 0 2114 1
1.2461884 0.23886475 -0.06896957 0 -0.9995712 0.0045672976 0.028921297 0 2114 1
1.2460052 0.24889845 -0.06881775 0 -0.9995712 0.0045672976 0.028921297 0 2114 1
1.245822 0.25893214 -0.068665929 0 -0.9995712 0.0045672976 0.028921297 0 2114 1
1.2456387 0.26896584 -0.068514109 0 -0.9995712 0.0045672976 0.028921297 0 2114 1
1.2454555 0.27899954 -0.068362288 0 -0.9995712 0.0045672976 0.028921297 0 2114 1
1.2452723 0.28903323 -0.068210468 0 -0.9995712 0.0045672976 0.028921297 0 2114 1
1.2450891 0.29906693 -0.068058647 0 -0.9995712 0.0045672976 0.028921297 0 2114 1
1.2449058 0.30910063 -0.067906827 0 -0.9995712 0.0045672976 0.028921297 0 2114 1
1.2447226 0.31913432 -0.067755006 0 -0.9995712 0.0045672976 0.028921297 0 2114 1
1.2445394 0.32916802 -0.067603186 0 -0.9995712 0.0045672976 0.028921297 0 2114 1
1.2443562 0.33920172 -0.067451365 0 -0.9995712 0.0045672976 0.028921297 0 2114 1
1.2441729 0.34923542 -0.067299545 0 -0.9995712 0.0045672976 0.028921297 0 2114 1
1.2439897 0.35926911 -0.067147724 0 -0.9995712 0.0045672976 0.028921297 0 2114 1
1.2438065 0.36930281 -0.066995904 0 -0.9995712 0.0045672976 0.028921297 0 2114 1
1.2436233 0.37933651 -0.066844083 0 -0.9995712 0.0045672976 0.028921297 0 2114 1
1.24344 0.3893702 -0.066692263 0 -0.9995712 0.0045672976 0.028921297 0 2114 1
1.2432568 0.3994039 -0.066540442 0 -0.9995712 0.0045672976 0.028921297 0 2114 1
1.2430736 0.4094376 -0.066388622 0 -0.9995712 0.0045672976 0.028921297 0 2114 1
1.2428904 0.41947129 -0.066236801 0 -0.9995712 0.0045672976 0.028921297 0 2114 1
1.2427071 0.42950499 -0.066084981 0 -0.9995712 0.0045672976 0.028921297 0 2114 1
1.2425239 0.43953869 -0.06593316 0 -0.9995712 0.0045672976 0.028921297 0 2114 1
1.2423407 0.44957238 -0.06578134 0 -0.9995712 0.0045672976 0.028921297 0 2114 1
1.2421575 0.45960608 -0.06562952 0 -0.9995712 0.0045672976 0.028921297 0 2114 1
1.2419742 0.46963978 -0.065477699 0 -0.9995712 0.0045672976 0.028921297 0 2114 1
1.241791 0.47967348 -0.065325879 0 -0.9995712 0.0045672976 0.028921297 0 2114 1
1.2416078 0.48970717 -0.065174058 0 -0.9995712 0.0045672976 0.028921297 0 2114 1
1.2414246 0.49974087 -0.065022238 0 -0.9995712 0.0045672976 0.028921297 0 2114 1
1.2412413 0.50977457 -0.064870417 0 -0.9995712 0.0045672976 0.028921297 0 2114 1
1.2410581 0.51980823 -0.064718597 0 -0.9995712 0.0045672976 0.028921297 0 2114 1
1.2408749 0.5298419 -0.064566776 0 -0.9995712 0.0045672976 0.028921297 0 2114 1
1.2406917 0.53987557 -0.064414956 0 -0.9995712 0.0045672976 0.028921297 0 2114 1
1.2405084 0.54990923 -0.064263135 0 -0.9995712 0.0045672976 0.028921297 0 2114 1
1.2403252 0.5599429 -0.064111315 0 -0.9995712 0.0045672976 0.028921297 0 2114 1
1.240142 0.56997657 -0.063959494 0 -0.9995712 0.0045672976 0.028921297 0 2114 1
1.2399588 0.58001024 -0.063807674 0 -0.9995712 0.0045672976 0.028921297 0 2114 1
1.2397755 0.5900439 -0.063655853 0 -0.9995712 0.0045672976 0.028921297 0 2114 1
1.2395923 0.60007757 -0.063504033 0 -0.9995712 0.0045672976 0.028921297 0 2114 1
1.2394091 0.61011124 -0.063352212 0 -0.9995712 0.0045672976 0.028921297 0 2114 1
1.2392259 0.6201449 -0.063200392 0 -0.9995712 0.0045672976 0.028921297 0 2114 1
1.2390426 0.63017857 -0.063048571 0 -0.9995712 0.0045672976 0.028921297 0 2114 1
1.2388594 0.64021224 -0.062896751 0 -0.9995712 0.0045672976 0.028921297 0 2114 1
1.2388656 0.64021224 -0.062897123 0 -0.97539997 -0.21953335 0.020000642 0 1534 1
1.2388656 0.64021224 -0.062897123 0 -0.97539997 -0.21953335 0.020000642 0 1534 1
1.2394141 0.640522 -0.052164413 0 -0.97539997 -0.21953335 0.020000642 0 1534 1
1.2399626 0.64083177 -0.041431703 0 -0.97539997 -0.21953335 0.020000642 0 1534 1
1.2405111 0.64114153 -0.03069899 0 -0.97539997 -0.21953335 0.020000642 0 1534 1
1.2410595 0.6414513 -0.019966278 0 -0.97539997 -0.21953335 0.020000642 0 1534 1
1.241608 0.64176106 -0.009233566 0 -0.97539997 -0.21953335 0.020000642 0 1534 1
1.2421565 0.64207083 0.0014991462 0 -0.97539997 -0.21953335 0.020000642 0 1534 1
1.242705 0.6423806 0.012231858 0 -0.97539997 -0.21953335 0.020000642 0 1534 1
1.2432535 0.64269036 0.022964571 0 -0.97539997 -0.21953335 0.020000642 0 1534 1
1.243802 0.64300013 0.033697285 0 -0.97539997 -0.21953335 0.020000642 0 1534 1
1.2443504 0.64330989 0.044429995 0 -0.97539997 -0.21953335 0.020000642 0 1534 1
1.2443506 0.64330965 0.044430003 0 -0.9981879 0.047051262 0.03750927 0 1599 1
1.489705 0.58418345 0.188674 0 -0.98721063 -0.023274014 0.15771332 0 3166 1
1.4898661 0.57409132 0.1884578 0 -0.98721063 -0.023274014 0.15771332 0 3166 1
1.4900273 0.56399918 0.1882416 0 -0.98721063 -0.023274014 0.15771332 0 3166 1
1.4901885 0.55390704 0.1880254 0 -0.98721063 -0.023274014 0.15771332 0 3166 1
1.4903497 0.5438149 0.1878092 0 -0.98721063 -0.023274014 0.15771332 0 3166 1
1.4905108 0.53372276 0.187593 0 -0.98721063 -0.023274014 0.15771332 0 3166 1
1.490672 0.52363062 0.1873768 0 -0.98721063 -0.023274014 0.15771332 0 3166 1
1.4908332 0.51353848 0.1871606 0 -0.98721063 -0.023274014 0.15771332 0 3166 1
1.4909943 0.50344634 0.1869444 0 -0.98721063 -0.023274014 0.15771332 0 3166 1
1.4911555 0.49335417 0.18672819 0 -0.98721063 -0.023274014 0.15771332 0 3166 1
1.4913167 0.483262 0.18651199 0 -0.98721063 -0.023274014 0.15771332 0 3166 1
1.4914778 0.47316983 0.18629579 0 -0.98721063 -0.023274014 0.15771332 0 3166 1
1.491639 0.46307766 0.18607959 0 -0.98721063 -0.023274014 0.15771332 0 3166 1
1.4918002 0.4529855 0.18586339 0 -0.98721063 -0.023274014 0.15771332 0 3166 1
1.4919614 0.44289333 0.18564719 0 -0.98721063 -0.023274014 0.15771332 0 3166 1
1.4921225 0.43280116 0.18543099 0 -0.98721063 -0.023274014 0.15771332 0 3166 1
1.4922837 0.42270899 0.18521479 0 -0.98721063 -0.023274014 0.15771332 0 3166 1
1.4924449 0.41261682 0.18499859 0 -0.98721063 -0.023274014 0.15771332 0 3166 1
1.492606 0.40252465 0.18478239 0 -0.98721063 -0.023274014 0.15771332 0 3166 1
1.4927672 0.39243248 0.18456618 0 -0.98721063 -0.023274014 0.15771332 0 3166 1
1.4929284 0.38234031 0.18434998 0 -0.98721063 -0.023274014 0.15771332 0 3166 1
1.4930896 0.37224814 0.18413378 0 -0.98721063 -0.023274014 0.15771332 0 3166 1
1.4932507 0.36215597 0.18391758 0 -0.98721063 -0.023274014 0.15771332 0 3166 1
1.4934119 0.3520638 0.18370138 0 -0.98721063 -0.023274014 0.15771332 0 3166 1
1.4935731 0.34197164 0.18348518 0 -0.98721063 -0.023274014 0.15771332 0 3166 1
1.4937342 0.33187947 0.18326898 0 -0.98721063 -0.023274014 0.15771332 0 3166 1
1.4938954 0.3217873 0.18305278 0 -0.98721063 -0.023274014 0.15771332 0 3166 1
1.4940566 0.31169513 0.18283658 0 -0.98721063 -0.023274014 0.15771332 0 3166 1
1.4942178 0.30160296 0.18262038 0 -0.98721063 -0.023274014 0.15771332 0 3166 1
1.4943789 0.29151079 0.18240418 0 -0.98721063 -0.023274014 0.15771332 0 3166 1
1.4945401 0.28141862 0.18218797 0 -0.98721063 -0.023274014 0.15771332 0 3166 1
1.4947013 0.27132645 0.18197177 0 -0.98721063 -0.023274014 0.15771332 0 3166 1
1.4948624 0.26123428 0.18175557 0 -0.98721063 -0.023274014 0.15771332 0 3166 1
1.4950236 0.25114211 0.18153937 0 -0.98721063 -0.023274014 0.15771332 0 3166 1
1.4951848 0.24104996 0.18132317 0 -0.98721063 -0.023274014 0.15771332 0 3166 1
1.495346 0.23095781 0.18110697 0 -0.98721063 -0.023274014 0.15771332 0 3166 1
1.4955071 0.22086565 0.18089077 0 -0.98721063 -0.023274014 0.15771332 0 3166 1
1.4956683 0.2107735 0.18067457 0 -0.98721063 -0.023274014 0.15771332 0 3166 1
1.4958295 0.20068134 0.18045837 0 -0.98721063 -0.023274014 0.15771332 0 3166 1
1.4959906 0.19058919 0.18024217 0 -0.98721063 -0.023274014 0.15771332 0 3166 1
1.4961518 0.18049704 0.18002596 0 -0.98721063 -0.023274014 0.15771332 0 3166 1
1.496313 0.17040488 0.17980976 0 -0.98721063 -0.023274014 0.15771332 0 3166 1
1.4964741 0.16031273 0.17959356 0 -0.98721063 -0.023274014 0.15771332 0 3166 1
1.4966353 0.15022057 0.17937736 0 -0.98721063 -0.023274014 0.15771332 0 3166 1
1.4967965 0.14012842 0.17916116 0 -0.98721063 -0.023274014 0.15771332 0 3166 1
1.4969577 0.13003626 0.17894496 0 -0.98721063 -0.023274014 0.15771332 0 3166 1
1.4971188 0.1199441 0.17872876 0 -0.98721063 -0.023274014 0.15771332 0 3166 1
1.49728 0.10985194 0.17851256 0 -0.98721063 -0.023274014 0.15771332 0 3166 1
1.4974412 0.09975978 0.17829636 0 -0.98721063 -0.023274014 0.15771332 0 3166 1
1.4976023 0.089667618 0.17808016 0 -0.98721063 -0.023274014 0.15771332 0 3166 1
1.4977635 0.079575457 0.17786396 0 -0.98721063 -0.023274014 0.15771332 0 3166 1
1.4979247 0.069483295 0.17764775 0 -0.98721063 -0.023274014 0.15771332 0 3166 1
1.4980859 0.059391133 0.17743155 0 -0.98721063 -0.023274014 0.15771332 0 3166 1
1.498247 0.049298972 0.17721535 0 -0.98721063 -0.023274014 0.15771332 0 3166 1
1.4984082 0.03920681 0.17699915 0 -0.98721063 -0.023274014 0.15771332 0 3166 1
1.4985694 0.029114649 0.17678295 0 -0.98721063 -0.023274014 0.15771332 0 3166 1
1.4987305 0.019022487 0.17656675 0 -0.98721063 -0.023274014 0.15771332 0 3166 1
1.4988917 0.0089303264 0.17635055 0 -0.98721063 -0.023274014 0.15771332 0 3166 1
1.4990529 -0.0011618342 0.17613435 0 -0.98721063 -0.023274014 0.15771332 0 3166 1
1.4992141 -0.011253995 0.17591815 0 -0.98721063 -0.023274014 0.15771332 0 3166 1
1.4993752 -0.021346156 0.17570195 0 -0.98721063 -0.023274014 0.15771332 0 3166 1
1.4995364 -0.031438317 0.17548575 0 -0.98721063 -0.023274014 0.15771332 0 3166 1
1.4996976 -0.041530479 0.17526954 0 -0.98721063 -0.023274014 0.15771332 0 3166 1
1.4998587 -0.05162264 0.17505334 0 -0.98721063 -0.023274014 0.15771332 0 3166 1
1.5000199 -0.061714802 0.17483714 0 -0.98721063 -0.023274014 0.15771332 0 3166 1
1.5001811 -0.07180696 0.17462094 0 -0.98721063 -0.023274014 0.15771332 0 3166 1
1.5003422 -0.081899121 0.17440474 0 -0.98721063 -0.023274014 0.15771332 0 3166 1
1.5005034 -0.091991283 0.17418854 0 -0.98721063 -0.023274014 0.15771332 0 3166 1
1.5006646 -0.10208344 0.17397234 0 -0.98721063 -0.023274014 0.15771332 0 3166 1
1.5008258 -0.11217561 0.17375614 0 -0.98721063 -0.023274014 0.15771332 0 3166 1
1.5009869 -0.12226777 0.17353994 0 -0.98721063 -0.023274014 0.15771332 0 3166 1
1.5011481 -0.13235992 0.17332374 0 -0.98721063 -0.023274014 0.15771332 0 3166 1
1.5013093 -0.14245208 0.17310753 0 -0.98721063 -0.023274014 0.15771332 0 3166 1
1.5014704 -0.15254423 0.17289133 0 -0.98721063 -0.023274014 0.15771332 0 3166 1
1.5016316 -0.16263638 0.17267513 0 -0.98721063 -0.023274014 0.15771332 0 3166 1
1.5017928 -0.17272854 0.17245893 0 -0.98721063 -0.023274014 0.15771332 0 3166 1
1.501954 -0.18282069 0.17224273 0 -0.98721063 -0.023274014 0.15771332 0 3166 1
1.5021151 -0.19291285 0.17202653 0 -0.98721063 -0.023274014 0.15771332 0 3166 1
1.5022763 -0.203005 0.17181033 0 -0.98721063 -0.023274014 0.15771332 0 3166 1
1.5024375 -0.21309716 0.17159413 0 -0.98721063 -0.023274014 0.15771332 0 3166 1
1.5025986 -0.22318931 0.17137793 0 -0.98721063 -0.023274014 0.15771332 0 3166 1
1.5027598 -0.23328146 0.17116173 0 -0.98721063 -0.023274014 0.15771332 0 3166 1
1.502921 -0.24337362 0.17094553 0 -0.98721063 -0.023274014 0.15771332 0 3166 1
1.5030822 -0.25346577 0.17072932 0 -0.98721063 -0.023274014 0.15771332 0 3166 1
1.5032433 -0.26355794 0.17051312 0 -0.98721063 -0.023274014 0.15771332 0 3166 1
1.5034045 -0.27365011 0.17029692 0 -0.98721063 -0.023274014 0.15771332 0 3166 1
1.5035657 -0.28374228 0.17008072 0 -0.98721063 -0.023274014 0.15771332 0 3166 1
1.5037268 -0.29383445 0.16986452 0 -0.98721063 -0.023274014 0.15771332 0 3166 1
1.503888 -0.30392662 0.16964832 0 -0.98721063 -0.023274014 0.15771332 0 3166 1
1.5040492 -0.31401879 0.16943212 0 -0.98721063 -0.023274014 0.15771332 0 3166 1
1.504051 -0.31401888 0.16943157 0 -0.98876673 0.06012458 -0.13684039 0 2954 1
1.504051 -0.31401888 0.16943157 0 -0.98876673 0.06012458 -0.13684039 0 2954 1
1.5047357 -0.30744091 0.16187894 0 -0.98876673 0.06012458 -0.13684039 0 2954 1
1.5054204 -0.30086294 0.15432632 0 -0.98876673 0.06012458 -0.13684039 0 2954 1
1.5061052 -0.29428497 0.1467737 0 -0.98876673 0.06012458 -0.13684039 0 2954 1
1.5067899 -0.287707 0.13922107 0 -0.98876673 0.06012458 -0.13684039 0 2954 1
1.5074747 -0.28112903 0.13166845 0 -0.98876673 0.06012458 -0.13684039 0 2954 1
1.5081594 -0.27455106 0.12411582 0 -0.98876673 0.06012458 -0.13684039 0 2954 1
1.508159 -0.274551 0.12411583 0 -0.99695593 -0.071510151 -0.031067293 0 3280 1
1.508159 -0.274551 0.12411583 0 -0.99695593 -0.071510151 -0.031067293 0 3280 1
1.507867 -0.26450813 0.12373563 0 -0.99695593 -0.071510151 -0.031067293 0 3280 1
1.5075749 -0.25446522 0.12335543 0 -0.99695593 -0.071510151 -0.031067293 0 3280 1
1.5072829 -0.24442233 0.12297522 0 -0.99695593 -0.071510151 -0.031067293 0 3280 1
1.5069908 -0.23437944 0.12259502 0 -0.99695593 -0.071510151 -0.031067293 0 3280 1
1.5066987 -0.22433655 0.12221482 0 -0.99695593 -0.071510151 -0.031067293 0 3280 1
1.5064067 -0.21429366 0.12183461 0 -0.99695593 -0.071510151 -0.031067293 0 3280 1
1.5061146 -0.20425077 0.12145441 0 -0.99695593 -0.071510151 -0.031067293 0 3280 1
1.5058225 -0.19420788 0.12107421 0 -0.99695593 -0.071510151 -0.031067293 0 3280 1
1.5055305 -0.18416499 0.120694 0 -0.99695593 -0.071510151 -0.031067293 0 3280 1
1.5052384 -0.1741221 0.1203138 0 -0.99695593 -0.071510151 -0.031067293 0 3280 1
1.5049464 -0.1640792 0.1199336 0 -0.99695593 -0.071510151 -0.031067293 0 3280 1
1.5046543 -0.15403631 0.11955339 0 -0.99695593 -0.071510151 -0.031067293 0 3280 1
1.5043622 -0.14399342 0.11917319 0 -0.99695593 -0.071510151 -0.031067293 0 3280 1
1.5040702 -0.13395053 0.11879299 0 -0.99695593 -0.071510151 -0.031067293 0 3280 1
1.5037781 -0.12390764 0.11841279 0 -0.99695593 -0.071510151 -0.031067293 0 3280 1
1.503486 -0.11386475 0.11803258 0 -0.99695593 -0.071510151 -0.031067293 0 3280 1
1.503194 -0.10382186 0.11765238 0 -0.99695593 -0.071510151 -0.031067293 0 3280 1
1.5029019 -0.093778968 0.11727218 0 -0.99695593 -0.071510151 -0.031067293 0 3280 1
1.5026098 -0.083736077 0.11689197 0 -0.99695593 -0.071510151 -0.031067293 0 3280 1
1.5023178 -0.073693186 0.11651177 0 -0.99695593 -0.071510151 -0.031067293 0 3280 1
1.5020257 -0.063650295 0.11613157 0 -0.99695593 -0.071510151 -0.031067293 0 3280 1
1.5017337 -0.053607404 0.11575136 0 -0.99695593 -0.071510151 -0.031067293 0 3280 1
1.5014416 -0.043564513 0.11537116 0 -0.99695593 -0.071510151 -0.031067293 0 3280 1
1.5011495 -0.033521622 0.11499096 0 -0.99695593 -0.071510151 -0.031067293 0 3280 1
1.5008575 -0.023478732 0.11461075 0 -0.99695593 -0.071510151 -0.031067293 0 3280 1
1.5005654 -0.013435841 0.11423055 0 -0.99695593 -0.071510151 -0.031067293 0 3280 1
1.5002733 -0.0033929497 0.11385035 0 -0.99695593 -0.071510151 -0.031067293 0 3280 1
1.4999813 0.0066499412 0.11347014 0 -0.99695593 -0.071510151 -0.031067293 0 3280 1
1.4996892 0.016692832 0.11308994 0 -0.99695593 -0.071510151 -0.031067293 0 3280 1
1.4993972 0.026735723 0.11270974 0 -0.99695593 -0.071510151 -0.031067293 0 3280 1
1.4991051 0.036778614 0.11232954 0 -0.99695593 -0.071510151 -0.031067293 0 3280 1
1.498813 0.046821505 0.11194933 0 -0.99695593 -0.071510151 -0.031067293 0 3280 1
1.498521 0.056864396 0.11156913 0 -0.99695593 -0.071510151 -0.031067293 0 3280 1
1.4982289 0.066907287 0.11118893 0 -0.99695593 -0.071510151 -0.031067293 0 3280 1
1.4979368 0.076950178 0.11080872 0 -0.99695593 -0.071510151 -0.031067293 0 3280 1
1.4976448 0.086993068 0.11042852 0 -0.99695593 -0.071510151 -0.031067293 0 3280 1
1.4973527 0.097035959 0.11004832 0 -0.99695593 -0.071510151 -0.031067293 0 3280 1
1.4970607 0.10707885 0.10966811 0 -0.99695593 -0.071510151 -0.031067293 0 3280 1
1.4967686 0.11712174 0.10928791 0 -0.99695593 -0.071510151 -0.031067293 0 3280 1
1.4964765 0.12716463 0.10890771 0 -0.99695593 -0.071510151 -0.031067293 0 3280 1
1.4961845 0.13720752 0.1085275 0 -0.99695593 -0.071510151 -0.031067293 0 3280 1
1.4958924 0.14725041 0.1081473 0 -0.99695593 -0.071510151 -0.031067293 0 3280 1
1.4956003 0.1572933 0.1077671 0 -0.99695593 -0.071510151 -0.031067293 0 3280 1
1.4953083 0.1673362 0.10738689 0 -0.99695593 -0.071510151 -0.031067293 0 3280 1
1.4950162 0.17737909 0.10700669 0 -0.99695593 -0.071510151 -0.031067293 0 3280 1
1.4947242 0.18742198 0.10662649 0 -0.99695593 -0.071510151 -0.031067293 0 3280 1
1.4944321 0.19746487 0.10624629 0 -0.99695593 -0.071510151 -0.031067293 0 3280 1
1.49414 0.20750776 0.10586608 0 -0.99695593 -0.071510151 -0.031067293 0 3280 1
1.493848 0.21755065 0.10548588 0 -0.99695593 -0.071510151 -0.031067293 0 3280 1
1.4935559 0.22759354 0.10510568 0 -0.99695593 -0.071510151 -0.031067293 0 3280 1
1.4932638 0.23763643 0.10472547 0 -0.99695593 -0.071510151 -0.031067293 0 3280 1
1.4929718 0.24767932 0.10434527 0 -0.99695593 -0.071510151 -0.031067293 0 3280 1
1.4926797 0.2577222 0.10396507 0 -0.99695593 -0.071510151 -0.031067293 0 3280 1
1.4923877 0.2677651 0.10358486 0 -0.99695593 -0.071510151 -0.031067293 0 3280 1
1.4920956 0.27780801 0.10320466 0 -0.99695593 -0.071510151 -0.031067293 0 3280 1
1.4918035 0.28785092 0.10282446 0 -0.99695593 -0.071510151 -0.031067293 0 3280 1
1.4915115 0.29789382 0.10244425 0 -0.99695593 -0.071510151 -0.031067293 0 3280 1
1.4912194 0.30793673 0.10206405 0 -0.99695593 -0.071510151 -0.031067293 0 3280 1
1.4909273 0.31797963 0.10168385 0 -0.99695593 -0.071510151 -0.031067293 0 3280 1
1.4906353 0.32802254 0.10130364 0 -0.99695593 -0.071510151 -0.031067293 0 3280 1
1.4903432 0.33806545 0.10092344 0 -0.99695593 -0.071510151 -0.031067293 0 3280 1
1.4900512 0.34810835 0.10054324 0 -0.99695593 -0.071510151 -0.031067293 0 3280 1
1.4897591 0.35815126 0.10016304 0 -0.99695593 -0.071510151 -0.031067293 0 3280 1
1.489467 0.36819416 0.099782832 0 -0.99695593 -0.071510151 -0.031067293 0 3280 1
1.489175 0.37823707 0.099402629 0 -0.99695593 -0.071510151 -0.031067293 0 3280 1
1.4888829 0.38827997 0.099022426 0 -0.99695593 -0.071510151 -0.031067293 0 3280 1
1.4885908 0.39832288 0.098642223 0 -0.99695593 -0.071510151 -0.031067293 0 3280 1
1.4882988 0.40836579 0.098262019 0 -0.99695593 -0.071510151 -0.031067293 0 3280 1
1.4880067 0.41840869 0.097881816 0 -0.99695593 -0.071510151 -0.031067293 0 3280 1
1.4877146 0.4284516 0.097501613 0 -0.99695593 -0.071510151 -0.031067293 0 3280 1
1.4874226 0.4384945 0.09712141 0 -0.99695593 -0.071510151 -0.031067293 0 3280 1
1.4871305 0.44853741 0.096741207 0 -0.99695593 -0.071510151 -0.031067293 0 3280 1
1.4868385 0.45858032 0.096361004 0 -0.99695593 -0.071510151 -0.031067293 0 3280 1
1.4865464 0.46862322 0.095980801 0 -0.99695593 -0.071510151 -0.031067293 0 3280 1
1.4862543 0.47866613 0.095600598 0 -0.99695593 -0.071510151 -0.031067293 0 3280 1
1.4859623 0.48870903 0.095220394 0 -0.99695593 -0.071510151 -0.031067293 0 3280 1
1.4856702 0.49875194 0.094840191 0 -0.99695593 -0.071510151 -0.031067293 0 3280 1
1.4853781 0.50879484 0.094459988 0 -0.99695593 -0.071510151 -0.031067293 0 3280 1
1.4850861 0.51883775 0.094079785 0 -0.99695593 -0.071510151 -0.031067293 0 3280 1
1.484794 0.52888066 0.093699582 0 -0.99695593 -0.071510151 -0.031067293 0 3280 1
1.484502 0.53892356 0.093319379 0 -0.99695593 -0.071510151 -0.031067293 0 3280 1
1.4842099 0.54896647 0.092939176 0 -0.99695593 -0.071510151 -0.031067293 0 3280 1
1.4842077 0.54896611 0.092939399 0 -0.99976122 0.020468038 -0.0076534981 0 2798 1
1.4842077 0.54896611 0.092939399 0 -0.99976122 0.020468038 -0.0076534981 0 2798 1
1.4847574 0.55248785 0.10251286 0 -0.99976122 0.020468038 -0.0076534981 0 2798 1
1.4853071 0.55600959 0.11208632 0 -0.99976122 0.020468038 -0.0076534981 0 2798 1
1.4858568 0.55953133 0.12165978 0 -0.99976122 0.020468038 -0.0076534981 0 2798 1
1.4864064 0.56305307 0.13123325 0 -0.99976122 0.020468038 -0.0076534981 0 2798 1
1.4869561 0.56657481 0.1408067 0 -0.99976122 0.020468038 -0.0076534981 0 2798 1
1.4875058 0.57009655 0.15038016 0 -0.99976122 0.020468038 -0.0076534981 0 2798 1
1.4880555 0.57361829 0.15995362 0 -0.99976122 0.020468038 -0.0076534981 0 2798 1
1.4886051 0.57714003 0.16952708 0 -0.99976122 0.020468038 -0.0076534981 0 2798 1
1.4891548 0.58066177 0.17910054 0 -0.99976122 0.020468038 -0.0076534981 0 2798 1
1.4897045 0.58418351 0.188674 0 -0.99976122 0.020468038 -0.0076534981 0 2798 1
1.489705 0.58418345 0.188674 0 -0.98721063 -0.023274014 0.15771332 0 3166 1
3.2473032 0.67687315 1.2006438 0 -0.98639452 0.10007425 -0.13042611 0 8199 1
3.2463956 0.66693163 1.1987462 0 -0.98639452 0.10007425 -0.13042611 0 8199 1
3.2454879 0.65699011 1.1968486 0 -0.98639452 0.10007425 -0.13042611 0 8199 1
3.2445803 0.64704859 1.1949511 0 -0.98639452 0.10007425 -0.13042611 0 8199 1
3.2436726 0.63710707 1.1930535 0 -0.98639452 0.10007425 -0.13042611 0 8199 1
3.2427649 0.62716556 1.1911559 0 -0.98639452 0.10007425 -0.13042611 0 8199 1
3.2418573 0.61722404 1.1892583 0 -0.98639452 0.10007425 -0.13042611 0 8199 1
3.2409496 0.60728252 1.1873608 0 -0.98639452 0.10007425 -0.13042611 0 8199 1
3.240042 0.597341 1.1854632 0 -0.98639452 0.10007425 -0.13042611 0 8199 1
3.2391343 0.58739948 1.1835656 0 -0.98639452 0.10007425 -0.13042611 0 8199 1
3.2382267 0.57745796 1.181668 0 -0.98639452 0.10007425 -0.13042611 0 8199 1
3.237319 0.56751645 1.1797705 0 -0.98639452 0.10007425 -0.13042611 0 8199 1
3.2364113 0.55757493 1.1778729 0 -0.98639452 0.10007425 -0.13042611 0 8199 1
3.2355037 0.54763341 1.1759753 0 -0.98639452 0.10007425 -0.13042611 0 8199 1
3.234596 0.53769189 1.1740777 0 -0.98639452 0.10007425 -0.13042611 0 8199 1
3.2336884 0.52775037 1.1721802 0 -0.98639452 0.10007425 -0.13042611 0 8199 1
3.2327807 0.51780885 1.1702826 0 -0.98639452 0.10007425 -0.13042611 0 8199 1
3.231873 0.50786734 1.168385 0 -0.98639452 0.10007425 -0.13042611 0 8199 1
3.2309654 0.49792582 1.1664875 0 -0.98639452 0.10007425 -0.13042611 0 8199 1
3.2300577 0.4879843 1.1645899 0 -0.98639452 0.10007425 -0.13042611 0 8199 1
3.2291501 0.47804278 1.1626923 0 -0.98639452 0.10007425 -0.13042611 0 8199 1
3.2282424 0.46810126 1.1607947 0 -0.98639452 0.10007425 -0.13042611 0 8199 1
3.2273347 0.45815974 1.1588972 0 -0.98639452 0.10007425 -0.13042611 0 8199 1
3.2264271 0.44821823 1.1569996 0 -0.98639452 0.10007425 -0.13042611 0 8199 1
3.2255194 0.43827671 1.155102 0 -0.98639452 0.10007425 -0.13042611 0 8199 1
3.2246118 0.42833519 1.1532044 0 -0.98639452 0.10007425 -0.13042611 0 8199 1
3.2237041 0.41839367 1.1513069 0 -0.98639452 0.10007425 -0.13042611 0 8199 1
3.2227964 0.40845215 1.1494093 0 -0.98639452 0.10007425 -0.13042611 0 8199 1
3.2218888 0.39851063 1.1475117 0 -0.98639452 0.10007425 -0.13042611 0 8199 1
3.2209811 0.38856912 1.1456141 0 -0.98639452 0.10007425 -0.13042611 0 8199 1
3.2200735 0.3786276 1.1437166 0 -0.98639452 0.10007425 -0.13042611 0 8199 1
3.2191658 0.36868608 1.141819 0 -0.98639452 0.10007425 -0.13042611 0 8199 1
3.2182581 0.35874456 1.1399214 0 -0.98639452 0.10007425 -0.13042611 0 8199 1
3.2173505 0.34880304 1.1380239 0 -0.98639452 0.10007425 -0.13042611 0 8199 1
3.2164428 0.33886153 1.1361263 0 -0.98639452 0.10007425 -0.13042611 0 8199 1
3.2155352 0.32892001 1.1342287 0 -0.98639452 0.10007425 -0.13042611 0 8199 1
3.2146275 0.31897849 1.1323311 0 -0.98639452 0.10007425 -0.13042611 0 8199 1
3.2137198 0.30903697 1.1304336 0 -0.98639452 0.10007425 -0.13042611 0 8199 1
3.2128122 0.29909545 1.128536 0 -0.98639452 0.10007425 -0.13042611 0 8199 1
3.2119045 0.28915393 1.1266384 0 -0.98639452 0.10007425 -0.13042611 0 8199 1
3.2109969 0.27921242 1.1247408 0 -0.98639452 0.10007425 -0.13042611 0 8199 1
3.2100892 0.2692709 1.1228433 0 -0.98639452 0.10007425 -0.13042611 0 8199 1
3.2091815 0.25932938 1.1209457 0 -0.98639452 0.10007425 -0.13042611 0 8199 1
3.2082739 0.24938785 1.1190481 0 -0.98639452 0.10007425 -0.13042611 0 8199 1
3.2073662 0.23944631 1.1171505 0 -0.98639452 0.10007425 -0.13042611 0 8199 1
3.2064586 0.22950478 1.115253 0 -0.98639452 0.10007425 -0.13042611 0 8199 1
3.2055509 0.21956325 1.1133554 0 -0.98639452 0.10007425 -0.13042611 0 8199 1
3.2046432 0.20962171 1.1114578 0 -0.98639452 0.10007425 -0.13042611 0 8199 1
3.2037356 0.19968018 1.1095603 0 -0.98639452 0.10007425 -0.13042611 0 8199 1
3.2028279 0.18973865 1.1076627 0 -0.98639452 0.10007425 -0.13042611 0 8199 1
3.2019203 0.17979711 1.1057651 0 -0.98639452 0.10007425 -0.13042611 0 8199 1
3.2010126 0.16985558 1.1038675 0 -0.98639452 0.10007425 -0.13042611 0 8199 1
3.200105 0.15991405 1.10197 0 -0.98639452 0.10007425 -0.13042611 0 8199 1
3.1991973 0.14997251 1.1000724 0 -0.98639452 0.10007425 -0.13042611 0 8199 1
3.1982896 0.14003098 1.0981748 0 -0.98639452 0.10007425 -0.13042611 0 8199 1
3.197382 0.13008945 1.0962772 0 -0.98639452 0.10007425 -0.13042611 0 8199 1
3.1964743 0.12014791 1.0943797 0 -0.98639452 0.10007425 -0.13042611 0 8199 1
3.1955667 0.11020638 1.0924821 0 -0.98639452 0.10007425 -0.13042611 0 8199 1
3.194659 0.10026485 1.0905845 0 -0.98639452 0.10007425 -0.13042611 0 8199 1
3.1937513 0.090323314 1.0886869 0 -0.98639452 0.10007425 -0.13042611 0 8199 1
3.1928437 0.080381781 1.0867894 0 -0.98639452 0.10007425 -0.13042611 0 8199 1
3.191936 0.070440248 1.0848918 0 -0.98639452 0.10007425 -0.13042611 0 8199 1
3.1919346 0.070439726 1.0848914 0 -0.96646839 0.2567142 -0.0060571991 0 8994 1
3.1919346 0.070439726 1.0848914 0 -0.96646839 0.2567142 -0.0060571991 0 8994 1
3.1924629 0.07161203 1.0745658 0 -0.96646839 0.2567142 -0.0060571991 0 8994 1
3.1929913 0.072784334 1.0642401 0 -0.96646839 0.2567142 -0.0060571991 0 8994 1
3.1935196 0.073956639 1.0539144 0 -0.96646839 0.2567142 -0.0060571991 0 8994 1
3.1940479 0.075128943 1.0435888 0 -0.96646839 0.2567142 -0.0060571991 0 8994 1
3.1945763 0.076301247 1.0332631 0 -0.96646839 0.2567142 -0.0060571991 0 8994 1
3.1951046 0.077473551 1.0229374 0 -0.96646839 0.2567142 -0.0060571991 0 8994 1
3.1956329 0.078645855 1.0126117 0 -0.96646839 0.2567142 -0.0060571991 0 8994 1
3.1961613 0.079818159 1.0022861 0 -0.96646839 0.2567142 -0.0060571991 0 8994 1
3.1966896 0.080990463 0.99196041 0 -0.96646839 0.2567142 -0.0060571991 0 8994 1
3.1972179 0.082162768 0.98163474 0 -0.96646839 0.2567142 -0.0060571991 0 8994 1
3.1977463 0.083335072 0.97130907 0 -0.96646839 0.2567142 -0.0060571991 0 8994 1
3.1982746 0.084507376 0.9609834 0 -0.96646839 0.2567142 -0.0060571991 0 8994 1
3.1988029 0.08567968 0.95065773 0 -0.96646839 0.2567142 -0.0060571991 0 8994 1
3.1993313 0.086851984 0.94033206 0 -0.96646839 0.2567142 -0.0060571991 0 8994 1
3.1998596 0.088024288 0.93000638 0 -0.96646839 0.2567142 -0.0060571991 0 8994 1
3.200388 0.089196593 0.91968071 0 -0.96646839 0.2567142 -0.0060571991 0 8994 1
3.2003894 0.089196578 0.91968066 0 -0.96953088 0.22408107 -0.09898328 0 7474 1
3.2003894 0.089196578 0.91968066 0 -0.96953088 0.22408107 -0.09898328 0 7474 1
3.2004921 0.099251546 0.91831738 0 -0.96953088 0.22408107 -0.09898328 0 7474 1
3.2005949 0.10930651 0.9169541 0 -0.96953088 0.22408107 -0.09898328 0 7474 1
3.2006977 0.11936148 0.91559082 0 -0.96953088 0.22408107 -0.09898328 0 7474 1
3.2008004 0.12941645 0.91422755 0 -0.96953088 0.22408107 -0.09898328 0 7474 1
3.2009032 0.13947141 0.91286427 0 -0.96953088 0.22408107 -0.09898328 0 7474 1
3.2010059 0.14952637 0.91150099 0 -0.96953088 0.22408107 -0.09898328 0 7474 1
3.2011087 0.15958133 0.91013771 0 -0.96953088 0.22408107 -0.09898328 0 7474 1
3.2012115 0.16963629 0.90877444 0 -0.96953088 0.22408107 -0.09898328 0 7474 1
3.2013142 0.17969126 0.90741116 0 -0.96953088 0.22408107 -0.09898328 0 7474 1
3.201417 0.18974622 0.90604788 0 -0.96953088 0.22408107 -0.09898328 0 7474 1
3.2015197 0.19980118 0.9046846 0 -0.96953088 0.22408107 -0.09898328 0 7474 1
3.2016225 0.20985614 0.90332133 0 -0.96953088 0.22408107 -0.09898328 0 7474 1
3.2017252 0.2199111 0.90195805 0 -0.96953088 0.22408107 -0.09898328 0 7474 1
3.201828 0.22996606 0.90059477 0 -0.96953088 0.22408107 -0.09898328 0 7474 1
3.2019308 0.24002102 0.89923149 0 -0.96953088 0.22408107 -0.09898328 0 7474 1
3.2020335 0.250076 0.89786822 0 -0.96953088 0.22408107 -0.09898328 0 7474 1
3.2021363 0.26013097 0.89650494 0 -0.96953088 0.22408107 -0.09898328 0 7474 1
3.202239 0.27018595 0.89514166 0 -0.96953088 0.22408107 -0.09898328 0 7474 1
3.2023418 0.28024092 0.89377838 0 -0.96953088 0.22408107 -0.09898328 0 7474 1
3.2024446 0.2902959 0.89241511 0 -0.96953088 0.22408107 -0.09898328 0 7474 1
3.2025473 0.30035087 0.89105183 0 -0.96953088 0.22408107 -0.09898328 0 7474 1
3.2026501 0.31040585 0.88968855 0 -0.96953088 0.22408107 -0.09898328 0 7474 1
3.2027528 0.32046083 0.88832527 0 -0.96953088 0.22408107 -0.09898328 0 7474 1
3.2028556 0.3305158 0.886962 0 -0.96953088 0.22408107 -0.09898328 0 7474 1
3.2029583 0.34057078 0.88559872 0 -0.96953088 0.22408107 -0.09898328 0 7474 1
3.2030611 0.35062575 0.88423544 0 -0.96953088 0.22408107 -0.09898328 0 7474 1
3.2031639 0.36068073 0.88287216 0 -0.96953088 0.22408107 -0.09898328 0 7474 1
3.2032666 0.3707357 0.88150889 0 -0.96953088 0.22408107 -0.09898328 0 7474 1
3.2033694 0.38079068 0.88014561 0 -0.96953088 0.22408107 -0.09898328 0 7474 1
3.2034721 0.39084566 0.87878233 0 -0.96953088 0.22408107 -0.09898328 0 7474 1
3.2035749 0.40090063 0.87741905 0 -0.96953088 0.22408107 -0.09898328 0 7474 1
3.2036777 0.41095561 0.87605578 0 -0.96953088 0.22408107 -0.09898328 0 7474 1
3.2037804 0.42101058 0.8746925 0 -0.96953088 0.22408107 -0.09898328 0 7474 1
3.2038832 0.43106556 0.87332922 0 -0.96953088 0.22408107 -0.09898328 0 7474 1
3.2039859 0.44112054 0.87196594 0 -0.96953088 0.22408107 -0.09898328 0 7474 1
3.2040887 0.45117551 0.87060267 0 -0.96953088 0.22408107 -0.09898328 0 7474 1
3.2041914 0.46123049 0.86923939 0 -0.96953088 0.22408107 -0.09898328 0 7474 1
3.2042942 0.47128546 0.86787611 0 -0.96953088 0.22408107 -0.09898328 0 7474 1
3.204397 0.48134044 0.86651284 0 -0.96953088 0.22408107 -0.09898328 0 7474 1
3.2044997 0.49139541 0.86514956 0 -0.96953088 0.22408107 -0.09898328 0 7474 1
3.2046025 0.50145036 0.86378628 0 -0.96953088 0.22408107 -0.09898328 0 7474 1
3.2047052 0.51150531 0.862423 0 -0.96953088 0.22408107 -0.09898328 0 7474 1
3.204808 0.52156025 0.86105973 0 -0.96953088 0.22408107 -0.09898328 0 7474 1
3.2049108 0.5316152 0.85969645 0 -0.96953088 0.22408107 -0.09898328 0 7474 1
3.2050135 0.54167014 0.85833317 0 -0.96953088 0.22408107 -0.09898328 0 7474 1
3.2051163 0.55172509 0.85696989 0 -0.96953088 0.22408107 -0.09898328 0 7474 1
3.205219 0.56178004 0.85560662 0 -0.96953088 0.22408107 -0.09898328 0 7474 1
3.2053218 0.57183498 0.85424334 0 -0.96953088 0.22408107 -0.09898328 0 7474 1
3.2054245 0.58188993 0.85288006 0 -0.96953088 0.22408107 -0.09898328 0 7474 1
3.2055273 0.59194487 0.85151678 0 -0.96953088 0.22408107 -0.09898328 0 7474 1
3.2056301 0.60199982 0.85015351 0 -0.96953088 0.22408107 -0.09898328 0 7474 1
3.2057328 0.61205477 0.84879023 0 -0.96953088 0.22408107 -0.09898328 0 7474 1
3.2058356 0.62210971 0.84742695 0 -0.96953088 0.22408107 -0.09898328 0 7474 1
3.2059383 0.63216466 0.84606367 0 -0.96953088 0.22408107 -0.09898328 0 7474 1
