# .PCD v0.7 - Point Cloud Data file format
VERSION 0.7
FIELDS x y z rgb normal_x normal_y normal_z curvature id confidence
SIZE 4 4 4 4 4 4 4 4 4 4
TYPE F F F F F F F F I F
COUNT 1 1 1 1 1 1 1 1 1 1
WIDTH 602
HEIGHT 1
VIEWPOINT 0 0 0 1 0 0 0
POINTS 602
DATA ascii
0.28209269 0.0035571079 -1.6903286 0 -0.54832768 0.72773635 -0.41199097 0 350 1
0.28059649 0.0034807567 -1.7005488 0 -0.54832768 0.72773635 -0.41199097 0 350 1
0.2791003 0.0034044054 -1.7107689 0 -0.54832768 0.72773635 -0.41199097 0 350 1
0.2776041 0.0033280542 -1.7209891 0 -0.54832768 0.72773635 -0.41199097 0 350 1
0.27610791 0.003251703 -1.7312093 0 -0.54832768 0.72773635 -0.41199097 0 350 1
0.27461171 0.0031753518 -1.7414294 0 -0.54832768 0.72773635 -0.41199097 0 350 1
0.27311552 0.0030990005 -1.7516496 0 -0.54832768 0.72773635 -0.41199097 0 350 1
0.27161932 0.0030226493 -1.7618698 0 -0.54832768 0.72773635 -0.41199097 0 350 1
0.27012312 0.0029462981 -1.77209 0 -0.54832768 0.72773635 -0.41199097 0 350 1
0.26862693 0.0028699469 -1.7823101 0 -0.54832768 0.72773635 -0.41199097 0 350 1
0.26713073 0.0027935957 -1.7925303 0 -0.54832768 0.72773635 -0.41199097 0 350 1
0.26563454 0.0027172444 -1.8027505 0 -0.54832768 0.72773635 -0.41199097 0 350 1
0.26413834 0.0026408932 -1.8129706 0 -0.54832768 0.72773635 -0.41199097 0 350 1
0.26264215 0.002564542 -1.8231908 0 -0.54832768 0.72773635 -0.41199097 0 350 1
0.26114595 0.0024881908 -1.833411 0 -0.54832768 0.72773635 -0.41199097 0 350 1
0.25964975 0.0024118396 -1.8436311 0 -0.54832768 0.72773635 -0.41199097 0 350 1
0.25815356 0.0023354883 -1.8538513 0 -0.54832768 0.72773635 -0.41199097 0 350 1
0.25665736 0.0022591371 -1.8640715 0 -0.54832768 0.72773635 -0.41199097 0 350 1
0.25516117 0.0021827859 -1.8742917 0 -0.54832768 0.72773635 -0.41199097 0 350 1
0.25366497 0.0021064347 -1.8845118 0 -0.54832768 0.72773635 -0.41199097 0 350 1
0.25216877 0.0020300834 -1.894732 0 -0.54832768 0.72773635 -0.41199097 0 350 1
0.25067258 0.0019537322 -1.9049522 0 -0.54832768 0.72773635 -0.41199097 0 350 1
0.24917638 0.0018773811 -1.9151723 0 -0.54832768 0.72773635 -0.41199097 0 350 1
0.24768019 0.00180103 -1.9253925 0 -0.54832768 0.72773635 -0.41199097 0 350 1
0.24768005 0.0018010326 -1.9253935 0 -0.42833006 0.89636296 -0.11431074 0 2668 1
0.24768005 0.0018010326 -1.9253935 0 -0.42833006 0.89636296 -0.11431074 0 2668 1
0.25593722 0.0076107103 -1.9254805 0 -0.42833006 0.89636296 -0.11431074 0 2668 1
0.2641944 0.013420388 -1.9255675 0 -0.42833006 0.89636296 -0.11431074 0 2668 1
0.27245158 0.019230066 -1.9256545 0 -0.42833006 0.89636296 -0.11431074 0 2668 1
0.28070876 0.025039744 -1.9257416 0 -0.42833006 0.89636296 -0.11431074 0 2668 1
0.28896594 0.030849421 -1.9258286 0 -0.42833006 0.89636296 -0.11431074 0 2668 1
0.29722312 0.036659099 -1.9259156 0 -0.42833006 0.89636296 -0.11431074 0 2668 1
0.3054803 0.042468779 -1.9260026 0 -0.42833006 0.89636296 -0.11431074 0 2668 1
0.31373748 0.048278458 -1.9260896 0 -0.42833006 0.89636296 -0.11431074 0 2668 1
0.32199466 0.054088138 -1.9261767 0 -0.42833006 0.89636296 -0.11431074 0 2668 1
0.33025184 0.059897818 -1.9262637 0 -0.42833006 0.89636296 -0.11431074 0 2668 1
0.33850902 0.065707497 -1.9263507 0 -0.42833006 0.89636296 -0.11431074 0 2668 1
0.3467662 0.071517177 -1.9264377 0 -0.42833006 0.89636296 -0.11431074 0 2668 1
0.35502338 0.077326857 -1.9265248 0 -0.42833006 0.89636296 -0.11431074 0 2668 1
0.36328056 0.083136536 -1.9266118 0 -0.42833006 0.89636296 -0.11431074 0 2668 1
0.37153774 0.088946216 -1.9266988 0 -0.42833006 0.89636296 -0.11431074 0 2668 1
0.37979493 0.094755895 -1.9267858 0 -0.42833006 0.89636296 -0.11431074 0 2668 1
0.38805211 0.10056558 -1.9268728 0 -0.42833006 0.89636296 -0.11431074 0 2668 1
0.39630929 0.10637525 -1.9269599 0 -0.42833006 0.89636296 -0.11431074 0 2668 1
0.40456647 0.11218493 -1.9270469 0 -0.42833006 0.89636296 -0.11431074 0 2668 1
0.41282365 0.11799461 -1.9271339 0 -0.42833006 0.89636296 -0.11431074 0 2668 1
0.42108083 0.12380429 -1.9272209 0 -0.42833006 0.89636296 -0.11431074 0 2668 1
0.42933801 0.12961397 -1.927308 0 -0.42833006 0.89636296 -0.11431074 0 2668 1
0.43759519 0.13542365 -1.927395 0 -0.42833006 0.89636296 -0.11431074 0 2668 1
0.44585237 0.14123333 -1.927482 0 -0.42833006 0.89636296 -0.11431074 0 2668 1
0.45410955 0.147043 -1.927569 0 -0.42833006 0.89636296 -0.11431074 0 2668 1
0.46236673 0.15285268 -1.9276561 0 -0.42833006 0.89636296 -0.11431074 0 2668 1
0.47062391 0.15866236 -1.9277431 0 -0.42833006 0.89636296 -0.11431074 0 2668 1
0.47888109 0.16447204 -1.9278301 0 -0.42833006 0.89636296 -0.11431074 0 2668 1
0.48713827 0.17028172 -1.9279171 0 -0.42833006 0.89636296 -0.11431074 0 2668 1
0.49539545 0.1760914 -1.9280041 0 -0.42833006 0.89636296 -0.11431074 0 2668 1
0.50365263 0.18190108 -1.9280912 0 -0.42833006 0.89636296 -0.11431074 0 2668 1
0.51190978 0.18771076 -1.9281782 0 -0.42833006 0.89636296 -0.11431074 0 2668 1
0.52016693 0.19352044 -1.9282652 0 -0.42833006 0.89636296 -0.11431074 0 2668 1
0.52842408 0.19933012 -1.9283522 0 -0.42833006 0.89636296 -0.11431074 0 2668 1
0.53668123 0.2051398 -1.9284393 0 -0.42833006 0.89636296 -0.11431074 0 2668 1
0.54493839 0.21094948 -1.9285263 0 -0.42833006 0.89636296 -0.11431074 0 2668 1
0.55319554 0.21675916 -1.9286133 0 -0.42833006 0.89636296 -0.11431074 0 2668 1
0.56145269 0.22256884 -1.9287003 0 -0.42833006 0.89636296 -0.11431074 0 2668 1
0.56970984 0.22837852 -1.9287874 0 -0.42833006 0.89636296 -0.11431074 0 2668 1
0.57796699 0.2341882 -1.9288744 0 -0.42833006 0.89636296 -0.11431074 0 2668 1
0.58622414 0.23999788 -1.9289614 0 -0.42833006 0.89636296 -0.11431074 0 2668 1
0.59448129 0.24580756 -1.9290484 0 -0.42833006 0.89636296 -0.11431074 0 2668 1
0.60273844 0.25161722 -1.9291354 0 -0.42833006 0.89636296 -0.11431074 0 2668 1
0.61099559 0.25742689 -1.9292225 0 -0.42833006 0.89636296 -0.11431074 0 2668 1
0.61925274 0.26323655 -1.9293095 0 -0.42833006 0.89636296 -0.11431074 0 2668 1
0.62750989 0.26904622 -1.9293965 0 -0.42833006 0.89636296 -0.11431074 0 2668 1
0.63576704 0.27485588 -1.9294835 0 -0.42833006 0.89636296 -0.11431074 0 2668 1
0.64402419 0.28066555 -1.9295706 0 -0.42833006 0.89636296 -0.11431074 0 2668 1
0.65228134 0.28647521 -1.9296576 0 -0.42833006 0.89636296 -0.11431074 0 2668 1
0.66053849 0.29228488 -1.9297446 0 -0.42833006 0.89636296 -0.11431074 0 2668 1
0.66879565 0.29809454 -1.9298316 0 -0.42833006 0.89636296 -0.11431074 0 2668 1
0.6770528 0.30390421 -1.9299186 0 -0.42833006 0.89636296 -0.11431074 0 2668 1
0.68530995 0.30971387 -1.9300057 0 -0.42833006 0.89636296 -0.11431074 0 2668 1
0.6935671 0.31552354 -1.9300927 0 -0.42833006 0.89636296 -0.11431074 0 2668 1
0.70182425 0.3213332 -1.9301797 0 -0.42833006 0.89636296 -0.11431074 0 2668 1
0.7100814 0.32714286 -1.9302667 0 -0.42833006 0.89636296 -0.11431074 0 2668 1
0.71833855 0.33295253 -1.9303538 0 -0.42833006 0.89636296 -0.11431074 0 2668 1
0.7265957 0.33876219 -1.9304408 0 -0.42833006 0.89636296 -0.11431074 0 2668 1
0.73485285 0.34457186 -1.9305278 0 -0.42833006 0.89636296 -0.11431074 0 2668 1
0.74311 0.35038152 -1.9306148 0 -0.42833006 0.89636296 -0.11431074 0 2668 1
0.75136715 0.35619119 -1.9307019 0 -0.42833006 0.89636296 -0.11431074 0 2668 1
0.75136793 0.3561914 -1.9307046 0 -0.66010845 0.68131685 -0.31632912 0 6340 1
0.75136793 0.3561914 -1.9307046 0 -0.66010845 0.68131685 -0.31632912 0 6340 1
0.75231946 0.35610837 -1.920408 0 -0.66010845 0.68131685 -0.31632912 0 6340 1
0.75327098 0.35602534 -1.9101114 0 -0.66010845 0.68131685 -0.31632912 0 6340 1
0.75422251 0.35594231 -1.8998148 0 -0.66010845 0.68131685 -0.31632912 0 6340 1
0.75517404 0.35585928 -1.8895183 0 -0.66010845 0.68131685 -0.31632912 0 6340 1
0.75612557 0.35577625 -1.8792217 0 -0.66010845 0.68131685 -0.31632912 0 6340 1
0.7570771 0.35569322 -1.8689251 0 -0.66010845 0.68131685 -0.31632912 0 6340 1
0.75802863 0.35561019 -1.8586285 0 -0.66010845 0.68131685 -0.31632912 0 6340 1
0.75898015 0.35552716 -1.8483319 0 -0.66010845 0.68131685 -0.31632912 0 6340 1
0.75993168 0.35544413 -1.8380353 0 -0.66010845 0.68131685 -0.31632912 0 6340 1
0.76088321 0.3553611 -1.8277388 0 -0.66010845 0.68131685 -0.31632912 0 6340 1
0.76183474 0.35527807 -1.8174422 0 -0.66010845 0.68131685 -0.31632912 0 6340 1
0.76278627 0.35519505 -1.8071456 0 -0.66010845 0.68131685 -0.31632912 0 6340 1
0.7637378 0.35511202 -1.796849 0 -0.66010845 0.68131685 -0.31632912 0 6340 1
0.76468933 0.35502899 -1.7865524 0 -0.66010845 0.68131685 -0.31632912 0 6340 1
0.76564085 0.35494596 -1.7762558 0 -0.66010845 0.68131685 -0.31632912 0 6340 1
0.76659238 0.35486293 -1.7659593 0 -0.66010845 0.68131685 -0.31632912 0 6340 1
0.76754391 0.3547799 -1.7556627 0 -0.66010845 0.68131685 -0.31632912 0 6340 1
0.76849544 0.35469687 -1.7453661 0 -0.66010845 0.68131685 -0.31632912 0 6340 1
0.76944697 0.35461384 -1.7350695 0 -0.66010845 0.68131685 -0.31632912 0 6340 1
0.7703985 0.35453081 -1.7247729 0 -0.66010845 0.68131685 -0.31632912 0 6340 1
0.77135003 0.35444778 -1.7144763 0 -0.66010845 0.68131685 -0.31632912 0 6340 1
0.77230155 0.35436475 -1.7041798 0 -0.66010845 0.68131685 -0.31632912 0 6340 1
0.77325308 0.35428172 -1.6938832 0 -0.66010845 0.68131685 -0.31632912 0 6340 1
0.77420461 0.35419869 -1.6835866 0 -0.66010845 0.68131685 -0.31632912 0 6340 1
0.77515614 0.35411566 -1.67329 0 -0.66010845 0.68131685 -0.31632912 0 6340 1
0.77515668 0.35411584 -1.6732886 0 -0.40956482 0.78943837 -0.45721292 0 4556 1
0.54784268 -0.439109 -1.9658622 0 -0.61843652 0.29260164 0.72932881 0 5690 1
0.55295479 -0.4477129 -1.9661744 0 -0.61843652 0.29260164 0.72932881 0 5690 1
0.5580669 -0.4563168 -1.9664866 0 -0.61843652 0.29260164 0.72932881 0 5690 1
0.56317902 -0.4649207 -1.9667988 0 -0.61843652 0.29260164 0.72932881 0 5690 1
0.56829113 -0.4735246 -1.967111 0 -0.61843652 0.29260164 0.72932881 0 5690 1
0.57340324 -0.4821285 -1.9674232 0 -0.61843652 0.29260164 0.72932881 0 5690 1
0.57851535 -0.4907324 -1.9677354 0 -0.61843652 0.29260164 0.72932881 0 5690 1
0.58362746 -0.4993363 -1.9680476 0 -0.61843652 0.29260164 0.72932881 0 5690 1
0.58873957 -0.50794023 -1.9683598 0 -0.61843652 0.29260164 0.72932881 0 5690 1
0.59385169 -0.51654416 -1.968672 0 -0.61843652 0.29260164 0.72932881 0 5690 1
0.5989638 -0.52514809 -1.9689842 0 -0.61843652 0.29260164 0.72932881 0 5690 1
0.60407591 -0.53375202 -1.9692965 0 -0.61843652 0.29260164 0.72932881 0 5690 1
0.60918802 -0.54235595 -1.9696087 0 -0.61843652 0.29260164 0.72932881 0 5690 1
0.61430013 -0.55095989 -1.9699209 0 -0.61843652 0.29260164 0.72932881 0 5690 1
0.61941224 -0.55956382 -1.9702331 0 -0.61843652 0.29260164 0.72932881 0 5690 1
0.62452435 -0.56816775 -1.9705453 0 -0.61843652 0.29260164 0.72932881 0 5690 1
0.62963647 -0.57677168 -1.9708575 0 -0.61843652 0.29260164 0.72932881 0 5690 1
0.63474858 -0.58537561 -1.9711697 0 -0.61843652 0.29260164 0.72932881 0 5690 1
0.63986069 -0.59397954 -1.9714819 0 -0.61843652 0.29260164 0.72932881 0 5690 1
0.6449728 -0.60258347 -1.9717941 0 -0.61843652 0.29260164 0.72932881 0 5690 1
0.65008491 -0.6111874 -1.9721063 0 -0.61843652 0.29260164 0.72932881 0 5690 1
0.65519702 -0.61979133 -1.9724185 0 -0.61843652 0.29260164 0.72932881 0 5690 1
0.66030914 -0.62839526 -1.9727308 0 -0.61843652 0.29260164 0.72932881 0 5690 1
0.66542125 -0.63699919 -1.973043 0 -0.61843652 0.29260164 0.72932881 0 5690 1
0.67053336 -0.64560312 -1.9733552 0 -0.61843652 0.29260164 0.72932881 0 5690 1
0.67564547 -0.65420705 -1.9736674 0 -0.61843652 0.29260164 0.72932881 0 5690 1
0.68075758 -0.66281098 -1.9739796 0 -0.61843652 0.29260164 0.72932881 0 5690 1
0.68586969 -0.67141491 -1.9742918 0 -0.61843652 0.29260164 0.72932881 0 5690 1
0.69098181 -0.68001884 -1.974604 0 -0.61843652 0.29260164 0.72932881 0 5690 1
0.69609392 -0.68862277 -1.9749162 0 -0.61843652 0.29260164 0.72932881 0 5690 1
0.70120603 -0.6972267 -1.9752284 0 -0.61843652 0.29260164 0.72932881 0 5690 1
0.70631814 -0.70583063 -1.9755406 0 -0.61843652 0.29260164 0.72932881 0 5690 1
0.71143025 -0.71443456 -1.9758528 0 -0.61843652 0.29260164 0.72932881 0 5690 1
0.71654236 -0.72303849 -1.9761651 0 -0.61843652 0.29260164 0.72932881 0 5690 1
0.72165447 -0.73164243 -1.9764773 0 -0.61843652 0.29260164 0.72932881 0 5690 1
0.72676659 -0.74024636 -1.9767895 0 -0.61843652 0.29260164 0.72932881 0 5690 1
0.7318787 -0.74885029 -1.9771017 0 -0.61843652 0.29260164 0.72932881 0 5690 1
0.73699081 -0.75745422 -1.9774139 0 -0.61843652 0.29260164 0.72932881 0 5690 1
0.74210292 -0.76605815 -1.9777261 0 -0.61843652 0.29260164 0.72932881 0 5690 1
0.74721503 -0.77466208 -1.9780383 0 -0.61843652 0.29260164 0.72932881 0 5690 1
0.75232714 -0.78326601 -1.9783505 0 -0.61843652 0.29260164 0.72932881 0 5690 1
0.75743926 -0.79186994 -1.9786627 0 -0.61843652 0.29260164 0.72932881 0 5690 1
0.76255137 -0.80047387 -1.9789749 0 -0.61843652 0.29260164 0.72932881 0 5690 1
0.76766348 -0.8090778 -1.9792871 0 -0.61843652 0.29260164 0.72932881 0 5690 1
0.77277559 -0.81768173 -1.9795994 0 -0.61843652 0.29260164 0.72932881 0 5690 1
0.7778877 -0.82628566 -1.9799116 0 -0.61843652 0.29260164 0.72932881 0 5690 1
0.78299981 -0.83488959 -1.9802238 0 -0.61843652 0.29260164 0.72932881 0 5690 1
0.78811193 -0.84349352 -1.980536 0 -0.61843652 0.29260164 0.72932881 0 5690 1
0.79322404 -0.85209745 -1.9808482 0 -0.61843652 0.29260164 0.72932881 0 5690 1
0.79833615 -0.86070138 -1.9811604 0 -0.61843652 0.29260164 0.72932881 0 5690 1
0.80344826 -0.86930531 -1.9814726 0 -0.61843652 0.29260164 0.72932881 0 5690 1
0.80856037 -0.87790924 -1.9817848 0 -0.61843652 0.29260164 0.72932881 0 5690 1
0.81367248 -0.88651317 -1.982097 0 -0.61843652 0.29260164 0.72932881 0 5690 1
0.81878459 -0.8951171 -1.9824092 0 -0.61843652 0.29260164 0.72932881 0 5690 1
0.82389671 -0.90372103 -1.9827214 0 -0.61843652 0.29260164 0.72932881 0 5690 1
0.82900882 -0.91232497 -1.9830337 0 -0.61843652 0.29260164 0.72932881 0 5690 1
0.83412093 -0.9209289 -1.9833459 0 -0.61843652 0.29260164 0.72932881 0 5690 1
0.83923304 -0.92953283 -1.9836581 0 -0.61843652 0.29260164 0.72932881 0 5690 1
0.84434515 -0.93813676 -1.9839703 0 -0.61843652 0.29260164 0.72932881 0 5690 1
0.84945726 -0.94674069 -1.9842825 0 -0.61843652 0.29260164 0.72932881 0 5690 1
0.85456938 -0.95534462 -1.9845947 0 -0.61843652 0.29260164 0.72932881 0 5690 1
0.85968149 -0.96394855 -1.9849069 0 -0.61843652 0.29260164 0.72932881 0 5690 1
0.85968149 -0.96394712 -1.9849104 0 -0.80860811 -0.1926152 0.55592465 0 8316 1
0.85968149 -0.96394712 -1.9849104 0 -0.80860811 -0.1926152 0.55592465 0 8316 1
0.85126567 -0.95683759 -1.9849739 0 -0.80860811 -0.1926152 0.55592465 0 8316 1
0.84284985 -0.94972807 -1.9850374 0 -0.80860811 -0.1926152 0.55592465 0 8316 1
0.83443403 -0.94261855 -1.985101 0 -0.80860811 -0.1926152 0.55592465 0 8316 1
0.82601821 -0.93550903 -1.9851645 0 -0.80860811 -0.1926152 0.55592465 0 8316 1
0.8176024 -0.9283995 -1.9852281 0 -0.80860811 -0.1926152 0.55592465 0 8316 1
0.80918658 -0.92128998 -1.9852916 0 -0.80860811 -0.1926152 0.55592465 0 8316 1
0.80077076 -0.91418046 -1.9853551 0 -0.80860811 -0.1926152 0.55592465 0 8316 1
0.80077088 -0.91418028 -1.9853548 0 -0.83111775 -0.21962208 0.51089072 0 8125 1
0.80077088 -0.91418028 -1.9853548 0 -0.83111775 -0.21962208 0.51089072 0 8125 1
0.79497665 -0.90591156 -1.9847922 0 -0.83111775 -0.21962208 0.51089072 0 8125 1
0.78918242 -0.89764285 -1.9842297 0 -0.83111775 -0.21962208 0.51089072 0 8125 1
0.7833882 -0.88937414 -1.9836671 0 -0.83111775 -0.21962208 0.51089072 0 8125 1
0.77759397 -0.88110542 -1.9831046 0 -0.83111775 -0.21962208 0.51089072 0 8125 1
0.77179974 -0.87283671 -1.982542 0 -0.83111775 -0.21962208 0.51089072 0 8125 1
0.76600552 -0.864568 -1.9819795 0 -0.83111775 -0.21962208 0.51089072 0 8125 1
0.76021129 -0.85629928 -1.9814169 0 -0.83111775 -0.21962208 0.51089072 0 8125 1
0.75441706 -0.84803057 -1.9808544 0 -0.83111775 -0.21962208 0.51089072 0 8125 1
0.74862283 -0.83976185 -1.9802918 0 -0.83111775 -0.21962208 0.51089072 0 8125 1
0.74282861 -0.83149314 -1.9797293 0 -0.83111775 -0.21962208 0.51089072 0 8125 1
0.73703438 -0.82322443 -1.9791667 0 -0.83111775 -0.21962208 0.51089072 0 8125 1
0.73124015 -0.81495571 -1.9786042 0 -0.83111775 -0.21962208 0.51089072 0 8125 1
0.72544593 -0.806687 -1.9780416 0 -0.83111775 -0.21962208 0.51089072 0 8125 1
0.7196517 -0.79841828 -1.9774791 0 -0.83111775 -0.21962208 0.51089072 0 8125 1
0.71385747 -0.79014957 -1.9769166 0 -0.83111775 -0.21962208 0.51089072 0 8125 1
0.70806324 -0.78188086 -1.976354 0 -0.83111775 -0.21962208 0.51089072 0 8125 1
0.70226902 -0.77361214 -1.9757915 0 -0.83111775 -0.21962208 0.51089072 0 8125 1
0.69647479 -0.76534343 -1.9752289 0 -0.83111775 -0.21962208 0.51089072 0 8125 1
0.69068056 -0.75707471 -1.9746664 0 -0.83111775 -0.21962208 0.51089072 0 8125 1
0.68488634 -0.748806 -1.9741038 0 -0.83111775 -0.21962208 0.51089072 0 8125 1
0.67909211 -0.74053729 -1.9735413 0 -0.83111775 -0.21962208 0.51089072 0 8125 1
0.67329788 -0.73226857 -1.9729787 0 -0.83111775 -0.21962208 0.51089072 0 8125 1
0.66750365 -0.72399986 -1.9724162 0 -0.83111775 -0.21962208 0.51089072 0 8125 1
0.66170943 -0.71573114 -1.9718536 0 -0.83111775 -0.21962208 0.51089072 0 8125 1
0.6559152 -0.70746243 -1.9712911 0 -0.83111775 -0.21962208 0.51089072 0 8125 1
0.65012097 -0.69919372 -1.9707285 0 -0.83111775 -0.21962208 0.51089072 0 8125 1
0.64432675 -0.690925 -1.970166 0 -0.83111775 -0.21962208 0.51089072 0 8125 1
0.63853252 -0.68265629 -1.9696034 0 -0.83111775 -0.21962208 0.51089072 0 8125 1
0.63273829 -0.67438757 -1.9690409 0 -0.83111775 -0.21962208 0.51089072 0 8125 1
0.62694407 -0.66611886 -1.9684783 0 -0.83111775 -0.21962208 0.51089072 0 8125 1
0.62114984 -0.65785015 -1.9679158 0 -0.83111775 -0.21962208 0.51089072 0 8125 1
0.61535561 -0.64958143 -1.9673532 0 -0.83111775 -0.21962208 0.51089072 0 8125 1
0.60956138 -0.64131272 -1.9667907 0 -0.83111775 -0.21962208 0.51089072 0 8125 1
0.60376716 -0.633044 -1.9662281 0 -0.83111775 -0.21962208 0.51089072 0 8125 1
0.59797293 -0.62477529 -1.9656656 0 -0.83111775 -0.21962208 0.51089072 0 8125 1
0.5921787 -0.61650658 -1.965103 0 -0.83111775 -0.21962208 0.51089072 0 8125 1
0.58638448 -0.60823786 -1.9645405 0 -0.83111775 -0.21962208 0.51089072 0 8125 1
0.58059025 -0.59996915 -1.9639779 0 -0.83111775 -0.21962208 0.51089072 0 8125 1
0.57479602 -0.59170043 -1.9634154 0 -0.83111775 -0.21962208 0.51089072 0 8125 1
0.56900179 -0.58343172 -1.9628528 0 -0.83111775 -0.21962208 0.51089072 0 8125 1
0.56320757 -0.57516301 -1.9622903 0 -0.83111775 -0.21962208 0.51089072 0 8125 1
0.55741334 -0.56689429 -1.9617277 0 -0.83111775 -0.21962208 0.51089072 0 8125 1
0.55161911 -0.55862558 -1.9611652 0 -0.83111775 -0.21962208 0.51089072 0 8125 1
0.54582489 -0.55035686 -1.9606026 0 -0.83111775 -0.21962208 0.51089072 0 8125 1
0.54003066 -0.54208815 -1.9600401 0 -0.83111775 -0.21962208 0.51089072 0 8125 1
0.53423643 -0.53381944 -1.9594775 0 -0.83111775 -0.21962208 0.51089072 0 8125 1
0.5284422 -0.52555072 -1.958915 0 -0.83111775 -0.21962208 0.51089072 0 8125 1
0.52264798 -0.51728201 -1.9583524 0 -0.83111775 -0.21962208 0.51089072 0 8125 1
0.51685375 -0.5090133 -1.9577899 0 -0.83111775 -0.21962208 0.51089072 0 8125 1
0.51105952 -0.50074458 -1.9572273 0 -0.83111775 -0.21962208 0.51089072 0 8125 1
0.5052653 -0.49247584 -1.9566648 0 -0.83111775 -0.21962208 0.51089072 0 8125 1
0.49947104 -0.48420709 -1.9561023 0 -0.83111775 -0.21962208 0.51089072 0 8125 1
0.49367678 -0.47593835 -1.9555397 0 -0.83111775 -0.21962208 0.51089072 0 8125 1
0.48788252 -0.46766961 -1.9549772 0 -0.83111775 -0.21962208 0.51089072 0 8125 1
0.48208827 -0.45940086 -1.9544146 0 -0.83111775 -0.21962208 0.51089072 0 8125 1
0.47629401 -0.45113212 -1.9538521 0 -0.83111775 -0.21962208 0.51089072 0 8125 1
0.47049975 -0.44286337 -1.9532895 0 -0.83111775 -0.21962208 0.51089072 0 8125 1
0.4647055 -0.43459463 -1.952727 0 -0.83111775 -0.21962208 0.51089072 0 8125 1
0.45891124 -0.42632589 -1.9521644 0 -0.83111775 -0.21962208 0.51089072 0 8125 1
0.45891035 -0.42632449 -1.952162 0 -0.92158997 -0.34083223 0.18575606 0 4702 1
0.45891035 -0.42632449 -1.952162 0 -0.92158997 -0.34083223 0.18575606 0 4702 1
0.46879172 -0.42774498 -1.9536842 0 -0.92158997 -0.34083223 0.18575606 0 4702 1
0.4786731 -0.42916548 -1.9552064 0 -0.92158997 -0.34083223 0.18575606 0 4702 1
0.48855448 -0.43058598 -1.9567286 0 -0.92158997 -0.34083223 0.18575606 0 4702 1
0.49843585 -0.43200648 -1.9582508 0 -0.92158997 -0.34083223 0.18575606 0 4702 1
0.50831723 -0.43342698 -1.9597729 0 -0.92158997 -0.34083223 0.18575606 0 4702 1
0.51819861 -0.43484747 -1.9612951 0 -0.92158997 -0.34083223 0.18575606 0 4702 1
0.52807999 -0.43626797 -1.9628173 0 -0.92158997 -0.34083223 0.18575606 0 4702 1
0.53796136 -0.43768847 -1.9643395 0 -0.92158997 -0.34083223 0.18575606 0 4702 1
0.54784274 -0.43910897 -1.9658617 0 -0.92158997 -0.34083223 0.18575606 0 4702 1
0.54784268 -0.439109 -1.9658622 0 -0.61843652 0.29260164 0.72932881 0 5690 1
1.8323054 -0.37398231 -1.6729684 0 -0.49819344 0.80809265 -0.31430796 0 14379 1
1.8242275 -0.37945068 -1.6753434 0 -0.49819344 0.80809265 -0.31430796 0 14379 1
1.8161495 -0.38491905 -1.6777184 0 -0.49819344 0.80809265 -0.31430796 0 14379 1
1.8080715 -0.39038742 -1.6800934 0 -0.49819344 0.80809265 -0.31430796 0 14379 1
1.7999935 -0.39585578 -1.6824684 0 -0.49819344 0.80809265 -0.31430796 0 14379 1
1.7919155 -0.40132415 -1.6848434 0 -0.49819344 0.80809265 -0.31430796 0 14379 1
1.7838376 -0.40679252 -1.6872184 0 -0.49819344 0.80809265 -0.31430796 0 14379 1
1.7757596 -0.41226089 -1.6895934 0 -0.49819344 0.80809265 -0.31430796 0 14379 1
1.7676816 -0.41772926 -1.6919684 0 -0.49819344 0.80809265 -0.31430796 0 14379 1
1.7596036 -0.42319763 -1.6943434 0 -0.49819344 0.80809265 -0.31430796 0 14379 1
1.7515256 -0.428666 -1.6967185 0 -0.49819344 0.80809265 -0.31430796 0 14379 1
1.7434477 -0.43413436 -1.6990935 0 -0.49819344 0.80809265 -0.31430796 0 14379 1
1.7353697 -0.43960273 -1.7014685 0 -0.49819344 0.80809265 -0.31430796 0 14379 1
1.7272917 -0.4450711 -1.7038435 0 -0.49819344 0.80809265 -0.31430796 0 14379 1
1.7192137 -0.45053947 -1.7062185 0 -0.49819344 0.80809265 -0.31430796 0 14379 1
1.7111357 -0.45600784 -1.7085935 0 -0.49819344 0.80809265 -0.31430796 0 14379 1
1.7030578 -0.46147621 -1.7109685 0 -0.49819344 0.80809265 -0.31430796 0 14379 1
1.6949798 -0.46694458 -1.7133435 0 -0.49819344 0.80809265 -0.31430796 0 14379 1
1.6869018 -0.47241294 -1.7157185 0 -0.49819344 0.80809265 -0.31430796 0 14379 1
1.6788238 -0.47788131 -1.7180935 0 -0.49819344 0.80809265 -0.31430796 0 14379 1
1.6707458 -0.48334968 -1.7204685 0 -0.49819344 0.80809265 -0.31430796 0 14379 1
1.6626679 -0.48881805 -1.7228435 0 -0.49819344 0.80809265 -0.31430796 0 14379 1
1.6545899 -0.49428642 -1.7252185 0 -0.49819344 0.80809265 -0.31430796 0 14379 1
1.6465119 -0.49975479 -1.7275935 0 -0.49819344 0.80809265 -0.31430796 0 14379 1
1.6384339 -0.50522316 -1.7299685 0 -0.49819344 0.80809265 -0.31430796 0 14379 1
1.630356 -0.51069152 -1.7323436 0 -0.49819344 0.80809265 -0.31430796 0 14379 1
1.622278 -0.51615989 -1.7347186 0 -0.49819344 0.80809265 -0.31430796 0 14379 1
1.6142 -0.52162826 -1.7370936 0 -0.49819344 0.80809265 -0.31430796 0 14379 1
1.606122 -0.52709663 -1.7394686 0 -0.49819344 0.80809265 -0.31430796 0 14379 1
1.598044 -0.532565 -1.7418436 0 -0.49819344 0.80809265 -0.31430796 0 14379 1
1.5899661 -0.53803337 -1.7442186 0 -0.49819344 0.80809265 -0.31430796 0 14379 1
1.5818881 -0.54350173 -1.7465936 0 -0.49819344 0.80809265 -0.31430796 0 14379 1
1.5738101 -0.5489701 -1.7489686 0 -0.49819344 0.80809265 -0.31430796 0 14379 1
1.5657321 -0.55443847 -1.7513436 0 -0.49819344 0.80809265 -0.31430796 0 14379 1
1.5576541 -0.55990684 -1.7537186 0 -0.49819344 0.80809265 -0.31430796 0 14379 1
1.5495762 -0.56537521 -1.7560936 0 -0.49819344 0.80809265 -0.31430796 0 14379 1
1.5414982 -0.57084358 -1.7584686 0 -0.49819344 0.80809265 -0.31430796 0 14379 1
1.5334202 -0.57631195 -1.7608436 0 -0.49819344 0.80809265 -0.31430796 0 14379 1
1.5253422 -0.58178031 -1.7632186 0 -0.49819344 0.80809265 -0.31430796 0 14379 1
1.5172642 -0.58724868 -1.7655936 0 -0.49819344 0.80809265 -0.31430796 0 14379 1
1.5091863 -0.59271705 -1.7679687 0 -0.49819344 0.80809265 -0.31430796 0 14379 1
1.5011083 -0.59818542 -1.7703437 0 -0.49819344 0.80809265 -0.31430796 0 14379 1
1.4930303 -0.60365379 -1.7727187 0 -0.49819344 0.80809265 -0.31430796 0 14379 1
1.4849523 -0.60912216 -1.7750937 0 -0.49819344 0.80809265 -0.31430796 0 14379 1
1.4768744 -0.61459053 -1.7774687 0 -0.49819344 0.80809265 -0.31430796 0 14379 1
1.4687964 -0.62005889 -1.7798437 0 -0.49819344 0.80809265 -0.31430796 0 14379 1
1.4607184 -0.62552726 -1.7822187 0 -0.49819344 0.80809265 -0.31430796 0 14379 1
1.4526404 -0.63099563 -1.7845937 0 -0.49819344 0.80809265 -0.31430796 0 14379 1
1.4445624 -0.636464 -1.7869687 0 -0.49819344 0.80809265 -0.31430796 0 14379 1
1.4364845 -0.64193237 -1.7893437 0 -0.49819344 0.80809265 -0.31430796 0 14379 1
1.4284065 -0.64740074 -1.7917187 0 -0.49819344 0.80809265 -0.31430796 0 14379 1
1.4203285 -0.65286911 -1.7940937 0 -0.49819344 0.80809265 -0.31430796 0 14379 1
1.4122505 -0.65833747 -1.7964687 0 -0.49819344 0.80809265 -0.31430796 0 14379 1
1.4041725 -0.66380584 -1.7988437 0 -0.49819344 0.80809265 -0.31430796 0 14379 1
1.3960946 -0.66927421 -1.8012187 0 -0.49819344 0.80809265 -0.31430796 0 14379 1
1.3880166 -0.67474258 -1.8035938 0 -0.49819344 0.80809265 -0.31430796 0 14379 1
1.3799386 -0.68021095 -1.8059688 0 -0.49819344 0.80809265 -0.31430796 0 14379 1
1.3718606 -0.68567932 -1.8083438 0 -0.49819344 0.80809265 -0.31430796 0 14379 1
1.3637826 -0.69114769 -1.8107188 0 -0.49819344 0.80809265 -0.31430796 0 14379 1
1.3557047 -0.69661605 -1.8130938 0 -0.49819344 0.80809265 -0.31430796 0 14379 1
1.3476267 -0.70208442 -1.8154688 0 -0.49819344 0.80809265 -0.31430796 0 14379 1
1.3395487 -0.70755279 -1.8178438 0 -0.49819344 0.80809265 -0.31430796 0 14379 1
1.3314707 -0.71302116 -1.8202188 0 -0.49819344 0.80809265 -0.31430796 0 14379 1
1.3233927 -0.71848953 -1.8225938 0 -0.49819344 0.80809265 -0.31430796 0 14379 1
1.3153148 -0.7239579 -1.8249688 0 -0.49819344 0.80809265 -0.31430796 0 14379 1
1.3072368 -0.72942626 -1.8273438 0 -0.49819344 0.80809265 -0.31430796 0 14379 1
1.2991588 -0.73489463 -1.8297188 0 -0.49819344 0.80809265 -0.31430796 0 14379 1
1.2910808 -0.740363 -1.8320938 0 -0.49819344 0.80809265 -0.31430796 0 14379 1
1.2830029 -0.74583137 -1.8344688 0 -0.49819344 0.80809265 -0.31430796 0 14379 1
1.2749249 -0.75129974 -1.8368438 0 -0.49819344 0.80809265 -0.31430796 0 14379 1
1.2668469 -0.75676811 -1.8392189 0 -0.49819344 0.80809265 -0.31430796 0 14379 1
1.2587689 -0.76223648 -1.8415939 0 -0.49819344 0.80809265 -0.31430796 0 14379 1
1.2506909 -0.76770484 -1.8439689 0 -0.49819344 0.80809265 -0.31430796 0 14379 1
1.242613 -0.77317321 -1.8463439 0 -0.49819344 0.80809265 -0.31430796 0 14379 1
1.234535 -0.77864158 -1.8487189 0 -0.49819344 0.80809265 -0.31430796 0 14379 1
1.226457 -0.78410995 -1.8510939 0 -0.49819344 0.80809265 -0.31430796 0 14379 1
1.218379 -0.78957832 -1.8534689 0 -0.49819344 0.80809265 -0.31430796 0 14379 1
1.210301 -0.79504669 -1.8558439 0 -0.49819344 0.80809265 -0.31430796 0 14379 1
1.2022231 -0.80051506 -1.8582189 0 -0.49819344 0.80809265 -0.31430796 0 14379 1
1.1941451 -0.80598342 -1.8605939 0 -0.49819344 0.80809265 -0.31430796 0 14379 1
1.1860671 -0.81145179 -1.8629689 0 -0.49819344 0.80809265 -0.31430796 0 14379 1
1.1779891 -0.81692016 -1.8653439 0 -0.49819344 0.80809265 -0.31430796 0 14379 1
1.1699111 -0.82238853 -1.8677189 0 -0.49819344 0.80809265 -0.31430796 0 14379 1
1.1618332 -0.8278569 -1.8700939 0 -0.49819344 0.80809265 -0.31430796 0 14379 1
1.1537552 -0.83332527 -1.8724689 0 -0.49819344 0.80809265 -0.31430796 0 14379 1
1.1456772 -0.83879364 -1.874844 0 -0.49819344 0.80809265 -0.31430796 0 14379 1
1.1375992 -0.844262 -1.877219 0 -0.49819344 0.80809265 -0.31430796 0 14379 1
1.1295213 -0.84973037 -1.879594 0 -0.49819344 0.80809265 -0.31430796 0 14379 1
1.1214433 -0.85519874 -1.881969 0 -0.49819344 0.80809265 -0.31430796 0 14379 1
1.1133653 -0.86066711 -1.884344 0 -0.49819344 0.80809265 -0.31430796 0 14379 1
1.1052873 -0.86613548 -1.886719 0 -0.49819344 0.80809265 -0.31430796 0 14379 1
1.0972093 -0.87160385 -1.889094 0 -0.49819344 0.80809265 -0.31430796 0 14379 1
1.0891314 -0.87707222 -1.891469 0 -0.49819344 0.80809265 -0.31430796 0 14379 1
1.0810534 -0.88254058 -1.893844 0 -0.49819344 0.80809265 -0.31430796 0 14379 1
1.0729754 -0.88800895 -1.896219 0 -0.49819344 0.80809265 -0.31430796 0 14379 1
1.0648974 -0.89347732 -1.898594 0 -0.49819344 0.80809265 -0.31430796 0 14379 1
1.0568194 -0.89894569 -1.900969 0 -0.49819344 0.80809265 -0.31430796 0 14379 1
1.0487415 -0.90441406 -1.903344 0 -0.49819344 0.80809265 -0.31430796 0 14379 1
1.0406635 -0.90988243 -1.905719 0 -0.49819344 0.80809265 -0.31430796 0 14379 1
1.0325855 -0.91535079 -1.908094 0 -0.49819344 0.80809265 -0.31430796 0 14379 1
1.0245075 -0.92081916 -1.9104691 0 -0.49819344 0.80809265 -0.31430796 0 14379 1
1.0164295 -0.92628753 -1.9128441 0 -0.49819344 0.80809265 -0.31430796 0 14379 1
1.0083516 -0.9317559 -1.9152191 0 -0.49819344 0.80809265 -0.31430796 0 14379 1
1.0002736 -0.93722427 -1.9175941 0 -0.49819344 0.80809265 -0.31430796 0 14379 1
0.99219561 -0.94269264 -1.9199691 0 -0.49819344 0.80809265 -0.31430796 0 14379 1
0.98411763 -0.94816101 -1.9223441 0 -0.49819344 0.80809265 -0.31430796 0 14379 1
0.97603965 -0.95362937 -1.9247191 0 -0.49819344 0.80809265 -0.31430796 0 14379 1
0.96796167 -0.95909774 -1.9270941 0 -0.49819344 0.80809265 -0.31430796 0 14379 1
0.95988369 -0.96456611 -1.9294691 0 -0.49819344 0.80809265 -0.31430796 0 14379 1
0.95180571 -0.97003448 -1.9318441 0 -0.49819344 0.80809265 -0.31430796 0 14379 1
0.94372773 -0.97550285 -1.9342191 0 -0.49819344 0.80809265 -0.31430796 0 14379 1
0.93564975 -0.98097122 -1.9365941 0 -0.49819344 0.80809265 -0.31430796 0 14379 1
0.92757177 -0.98643959 -1.9389691 0 -0.49819344 0.80809265 -0.31430796 0 14379 1
0.91949379 -0.99190795 -1.9413441 0 -0.49819344 0.80809265 -0.31430796 0 14379 1
0.91141582 -0.99737632 -1.9437191 0 -0.49819344 0.80809265 -0.31430796 0 14379 1
0.90333784 -1.0028447 -1.9460942 0 -0.49819344 0.80809265 -0.31430796 0 14379 1
0.89525986 -1.0083131 -1.9484692 0 -0.49819344 0.80809265 -0.31430796 0 14379 1
0.88718188 -1.0137814 -1.9508442 0 -0.49819344 0.80809265 -0.31430796 0 14379 1
0.8791039 -1.0192498 -1.9532192 0 -0.49819344 0.80809265 -0.31430796 0 14379 1
0.87102592 -1.0247182 -1.9555942 0 -0.49819344 0.80809265 -0.31430796 0 14379 1
0.86294794 -1.0301865 -1.9579692 0 -0.49819344 0.80809265 -0.31430796 0 14379 1
0.85486996 -1.0356549 -1.9603442 0 -0.49819344 0.80809265 -0.31430796 0 14379 1
0.84679198 -1.0411233 -1.9627192 0 -0.49819344 0.80809265 -0.31430796 0 14379 1
0.838714 -1.0465916 -1.9650942 0 -0.49819344 0.80809265 -0.31430796 0 14379 1
0.83063602 -1.05206 -1.9674692 0 -0.49819344 0.80809265 -0.31430796 0 14379 1
0.82255805 -1.0575284 -1.9698442 0 -0.49819344 0.80809265 -0.31430796 0 14379 1
0.81448007 -1.0629967 -1.9722192 0 -0.49819344 0.80809265 -0.31430796 0 14379 1
0.80640209 -1.0684651 -1.9745942 0 -0.49819344 0.80809265 -0.31430796 0 14379 1
0.79832411 -1.0739335 -1.9769692 0 -0.49819344 0.80809265 -0.31430796 0 14379 1
0.79024613 -1.0794019 -1.9793442 0 -0.49819344 0.80809265 -0.31430796 0 14379 1
0.78216815 -1.0848702 -1.9817193 0 -0.49819344 0.80809265 -0.31430796 0 14379 1
0.77409017 -1.0903386 -1.9840943 0 -0.49819344 0.80809265 -0.31430796 0 14379 1
0.76601219 -1.095807 -1.9864693 0 -0.49819344 0.80809265 -0.31430796 0 14379 1
0.75793421 -1.1012753 -1.9888443 0 -0.49819344 0.80809265 -0.31430796 0 14379 1
0.74985623 -1.1067437 -1.9912193 0 -0.49819344 0.80809265 -0.31430796 0 14379 1
0.74177825 -1.1122121 -1.9935943 0 -0.49819344 0.80809265 -0.31430796 0 14379 1
0.73370028 -1.1176804 -1.9959693 0 -0.49819344 0.80809265 -0.31430796 0 14379 1
0.7256223 -1.1231488 -1.9983443 0 -0.49819344 0.80809265 -0.31430796 0 14379 1
0.71754432 -1.1286172 -2.0007193 0 -0.49819344 0.80809265 -0.31430796 0 14379 1
0.70946634 -1.1340855 -2.0030942 0 -0.49819344 0.80809265 -0.31430796 0 14379 1
0.70138836 -1.1395539 -2.0054691 0 -0.49819344 0.80809265 -0.31430796 0 14379 1
0.69331038 -1.1450223 -2.007844 0 -0.49819344 0.80809265 -0.31430796 0 14379 1
0.6852324 -1.1504906 -2.0102189 0 -0.49819344 0.80809265 -0.31430796 0 14379 1
0.67715442 -1.155959 -2.0125937 0 -0.49819344 0.80809265 -0.31430796 0 14379 1
0.66907644 -1.1614274 -2.0149686 0 -0.49819344 0.80809265 -0.31430796 0 14379 1
0.66099846 -1.1668957 -2.0173435 0 -0.49819344 0.80809265 -0.31430796 0 14379 1
0.65292048 -1.1723641 -2.0197184 0 -0.49819344 0.80809265 -0.31430796 0 14379 1
0.64484251 -1.1778325 -2.0220933 0 -0.49819344 0.80809265 -0.31430796 0 14379 1
0.63676453 -1.1833009 -2.0244682 0 -0.49819344 0.80809265 -0.31430796 0 14379 1
0.62868655 -1.1887692 -2.0268431 0 -0.49819344 0.80809265 -0.31430796 0 14379 1
0.62060857 -1.1942376 -2.029218 0 -0.49819344 0.80809265 -0.31430796 0 14379 1
0.61253059 -1.199706 -2.0315928 0 -0.49819344 0.80809265 -0.31430796 0 14379 1
0.60445261 -1.2051743 -2.0339677 0 -0.49819344 0.80809265 -0.31430796 0 14379 1
0.59637463 -1.2106427 -2.0363426 0 -0.49819344 0.80809265 -0.31430796 0 14379 1
0.58829665 -1.2161111 -2.0387175 0 -0.49819344 0.80809265 -0.31430796 0 14379 1
0.58021867 -1.2215794 -2.0410924 0 -0.49819344 0.80809265 -0.31430796 0 14379 1
0.57214069 -1.2270478 -2.0434673 0 -0.49819344 0.80809265 -0.31430796 0 14379 1
0.56406271 -1.2325162 -2.0458422 0 -0.49819344 0.80809265 -0.31430796 0 14379 1
0.55598474 -1.2379845 -2.0482171 0 -0.49819344 0.80809265 -0.31430796 0 14379 1
0.54790676 -1.2434529 -2.0505919 0 -0.49819344 0.80809265 -0.31430796 0 14379 1
0.53982878 -1.2489213 -2.0529668 0 -0.49819344 0.80809265 -0.31430796 0 14379 1
0.5317508 -1.2543896 -2.0553417 0 -0.49819344 0.80809265 -0.31430796 0 14379 1
0.52367282 -1.259858 -2.0577166 0 -0.49819344 0.80809265 -0.31430796 0 14379 1
0.51559484 -1.2653264 -2.0600915 0 -0.49819344 0.80809265 -0.31430796 0 14379 1
0.50751686 -1.2707947 -2.0624664 0 -0.49819344 0.80809265 -0.31430796 0 14379 1
0.49943888 -1.2762631 -2.0648413 0 -0.49819344 0.80809265 -0.31430796 0 14379 1
0.4913609 -1.2817315 -2.0672162 0 -0.49819344 0.80809265 -0.31430796 0 14379 1
0.48328292 -1.2871999 -2.069591 0 -0.49819344 0.80809265 -0.31430796 0 14379 1
0.47520494 -1.2926682 -2.0719659 0 -0.49819344 0.80809265 -0.31430796 0 14379 1
0.46712697 -1.2981366 -2.0743408 0 -0.49819344 0.80809265 -0.31430796 0 14379 1
0.45904899 -1.303605 -2.0767157 0 -0.49819344 0.80809265 -0.31430796 0 14379 1
0.45097101 -1.3090733 -2.0790906 0 -0.49819344 0.80809265 -0.31430796 0 14379 1
0.44289303 -1.3145417 -2.0814655 0 -0.49819344 0.80809265 -0.31430796 0 14379 1
0.43481505 -1.3200101 -2.0838404 0 -0.49819344 0.80809265 -0.31430796 0 14379 1
0.42673707 -1.3254784 -2.0862153 0 -0.49819344 0.80809265 -0.31430796 0 14379 1
0.41865909 -1.3309468 -2.0885901 0 -0.49819344 0.80809265 -0.31430796 0 14379 1
0.41058111 -1.3364152 -2.090965 0 -0.49819344 0.80809265 -0.31430796 0 14379 1
0.40250313 -1.3418835 -2.0933399 0 -0.49819344 0.80809265 -0.31430796 0 14379 1
0.39442515 -1.3473519 -2.0957148 0 -0.49819344 0.80809265 -0.31430796 0 14379 1
0.38634717 -1.3528203 -2.0980897 0 -0.49819344 0.80809265 -0.31430796 0 14379 1
0.3782692 -1.3582886 -2.1004646 0 -0.49819344 0.80809265 -0.31430796 0 14379 1
0.37019122 -1.363757 -2.1028395 0 -0.49819344 0.80809265 -0.31430796 0 14379 1
0.36211324 -1.3692254 -2.1052144 0 -0.49819344 0.80809265 -0.31430796 0 14379 1
0.36211342 -1.3692266 -2.1052179 0 -0.063971765 0.95573056 -0.28720501 0 7101 1
0.36211342 -1.3692266 -2.1052179 0 -0.063971765 0.95573056 -0.28720501 0 7101 1
0.36302459 -1.3701253 -2.1152606 0 -0.063971765 0.95573056 -0.28720501 0 7101 1
0.36393577 -1.371024 -2.1253033 0 -0.063971765 0.95573056 -0.28720501 0 7101 1
0.36484694 -1.3719227 -2.1353459 0 -0.063971765 0.95573056 -0.28720501 0 7101 1
0.36575812 -1.3728215 -2.1453886 0 -0.063971765 0.95573056 -0.28720501 0 7101 1
0.3666693 -1.3737202 -2.1554313 0 -0.063971765 0.95573056 -0.28720501 0 7101 1
0.36758047 -1.3746189 -2.1654739 0 -0.063971765 0.95573056 -0.28720501 0 7101 1
0.36849165 -1.3755176 -2.1755166 0 -0.063971765 0.95573056 -0.28720501 0 7101 1
0.36940283 -1.3764163 -2.1855593 0 -0.063971765 0.95573056 -0.28720501 0 7101 1
0.370314 -1.377315 -2.1956019 0 -0.063971765 0.95573056 -0.28720501 0 7101 1
0.37122518 -1.3782138 -2.2056446 0 -0.063971765 0.95573056 -0.28720501 0 7101 1
0.37213635 -1.3791125 -2.2156873 0 -0.063971765 0.95573056 -0.28720501 0 7101 1
0.37304753 -1.3800112 -2.2257299 0 -0.063971765 0.95573056 -0.28720501 0 7101 1
0.37395871 -1.3809099 -2.2357726 0 -0.063971765 0.95573056 -0.28720501 0 7101 1
0.37486988 -1.3818086 -2.2458153 0 -0.063971765 0.95573056 -0.28720501 0 7101 1
0.37578106 -1.3827074 -2.2558579 0 -0.063971765 0.95573056 -0.28720501 0 7101 1
0.37669224 -1.3836061 -2.2659006 0 -0.063971765 0.95573056 -0.28720501 0 7101 1
0.37760341 -1.3845048 -2.2759433 0 -0.063971765 0.95573056 -0.28720501 0 7101 1
0.37851459 -1.3854035 -2.2859859 0 -0.063971765 0.95573056 -0.28720501 0 7101 1
0.37942576 -1.3863022 -2.2960286 0 -0.063971765 0.95573056 -0.28720501 0 7101 1
0.38033694 -1.387201 -2.3060713 0 -0.063971765 0.95573056 -0.28720501 0 7101 1
0.38033724 -1.3871999 -2.3060725 0 -0.24189511 0.86251402 -0.44447297 0 2094 1
0.38033724 -1.3871999 -2.3060725 0 -0.24189511 0.86251402 -0.44447297 0 2094 1
0.38815674 -1.3815943 -2.3033314 0 -0.24189511 0.86251402 -0.44447297 0 2094 1
0.39597625 -1.3759887 -2.3005903 0 -0.24189511 0.86251402 -0.44447297 0 2094 1
0.40379575 -1.3703831 -2.2978492 0 -0.24189511 0.86251402 -0.44447297 0 2094 1
0.41161525 -1.3647776 -2.2951081 0 -0.24189511 0.86251402 -0.44447297 0 2094 1
0.41943476 -1.359172 -2.292367 0 -0.24189511 0.86251402 -0.44447297 0 2094 1
0.42725426 -1.3535664 -2.2896259 0 -0.24189511 0.86251402 -0.44447297 0 2094 1
0.43507376 -1.3479608 -2.2868848 0 -0.24189511 0.86251402 -0.44447297 0 2094 1
0.44289327 -1.3423553 -2.2841437 0 -0.24189511 0.86251402 -0.44447297 0 2094 1
0.45071277 -1.3367497 -2.2814026 0 -0.24189511 0.86251402 -0.44447297 0 2094 1
0.45853227 -1.3311441 -2.2786615 0 -0.24189511 0.86251402 -0.44447297 0 2094 1
0.46635178 -1.3255385 -2.2759204 0 -0.24189511 0.86251402 -0.44447297 0 2094 1
0.47417128 -1.3199329 -2.2731793 0 -0.24189511 0.86251402 -0.44447297 0 2094 1
0.48199078 -1.3143274 -2.2704382 0 -0.24189511 0.86251402 -0.44447297 0 2094 1
0.48981029 -1.3087218 -2.2676971 0 -0.24189511 0.86251402 -0.44447297 0 2094 1
0.49762979 -1.3031162 -2.264956 0 -0.24189511 0.86251402 -0.44447297 0 2094 1
0.5054493 -1.2975106 -2.2622149 0 -0.24189511 0.86251402 -0.44447297 0 2094 1
0.51326877 -1.291905 -2.2594738 0 -0.24189511 0.86251402 -0.44447297 0 2094 1
0.52108824 -1.2862995 -2.2567327 0 -0.24189511 0.86251402 -0.44447297 0 2094 1
0.52890772 -1.2806939 -2.2539916 0 -0.24189511 0.86251402 -0.44447297 0 2094 1
0.53672719 -1.2750883 -2.2512505 0 -0.24189511 0.86251402 -0.44447297 0 2094 1
0.54454666 -1.2694827 -2.2485094 0 -0.24189511 0.86251402 -0.44447297 0 2094 1
0.55236614 -1.2638772 -2.2457683 0 -0.24189511 0.86251402 -0.44447297 0 2094 1
0.56018561 -1.2582716 -2.2430272 0 -0.24189511 0.86251402 -0.44447297 0 2094 1
0.56800508 -1.252666 -2.2402861 0 -0.24189511 0.86251402 -0.44447297 0 2094 1
0.57582456 -1.2470604 -2.237545 0 -0.24189511 0.86251402 -0.44447297 0 2094 1
0.58364403 -1.2414548 -2.2348039 0 -0.24189511 0.86251402 -0.44447297 0 2094 1
0.59146351 -1.2358493 -2.2320628 0 -0.24189511 0.86251402 -0.44447297 0 2094 1
0.59928298 -1.2302437 -2.2293217 0 -0.24189511 0.86251402 -0.44447297 0 2094 1
0.60710245 -1.2246381 -2.2265806 0 -0.24189511 0.86251402 -0.44447297 0 2094 1
0.61492193 -1.2190325 -2.2238395 0 -0.24189511 0.86251402 -0.44447297 0 2094 1
0.6227414 -1.2134269 -2.2210984 0 -0.24189511 0.86251402 -0.44447297 0 2094 1
0.63056087 -1.2078214 -2.2183573 0 -0.24189511 0.86251402 -0.44447297 0 2094 1
0.63838035 -1.2022158 -2.2156162 0 -0.24189511 0.86251402 -0.44447297 0 2094 1
0.64619982 -1.1966102 -2.2128751 0 -0.24189511 0.86251402 -0.44447297 0 2094 1
0.6540193 -1.1910046 -2.210134 0 -0.24189511 0.86251402 -0.44447297 0 2094 1
0.66183877 -1.1853991 -2.2073929 0 -0.24189511 0.86251402 -0.44447297 0 2094 1
0.66965824 -1.1797935 -2.2046518 0 -0.24189511 0.86251402 -0.44447297 0 2094 1
0.67747772 -1.1741879 -2.2019107 0 -0.24189511 0.86251402 -0.44447297 0 2094 1
0.68529719 -1.1685823 -2.1991696 0 -0.24189511 0.86251402 -0.44447297 0 2094 1
0.69311666 -1.1629767 -2.1964285 0 -0.24189511 0.86251402 -0.44447297 0 2094 1
0.70093614 -1.1573712 -2.1936874 0 -0.24189511 0.86251402 -0.44447297 0 2094 1
0.70875561 -1.1517656 -2.1909463 0 -0.24189511 0.86251402 -0.44447297 0 2094 1
0.71657509 -1.14616 -2.1882052 0 -0.24189511 0.86251402 -0.44447297 0 2094 1
0.72439456 -1.1405544 -2.1854641 0 -0.24189511 0.86251402 -0.44447297 0 2094 1
0.73221403 -1.1349488 -2.182723 0 -0.24189511 0.86251402 -0.44447297 0 2094 1
0.74003351 -1.1293433 -2.1799819 0 -0.24189511 0.86251402 -0.44447297 0 2094 1
0.74785298 -1.1237377 -2.1772408 0 -0.24189511 0.86251402 -0.44447297 0 2094 1
0.75567245 -1.1181321 -2.1744998 0 -0.24189511 0.86251402 -0.44447297 0 2094 1
0.76349193 -1.1125265 -2.1717587 0 -0.24189511 0.86251402 -0.44447297 0 2094 1
0.7713114 -1.106921 -2.1690176 0 -0.24189511 0.86251402 -0.44447297 0 2094 1
0.77913088 -1.1013154 -2.1662765 0 -0.24189511 0.86251402 -0.44447297 0 2094 1
0.78695035 -1.0957098 -2.1635354 0 -0.24189511 0.86251402 -0.44447297 0 2094 1
0.79476982 -1.0901042 -2.1607943 0 -0.24189511 0.86251402 -0.44447297 0 2094 1
0.8025893 -1.0844986 -2.1580532 0 -0.24189511 0.86251402 -0.44447297 0 2094 1
0.81040877 -1.0788931 -2.1553121 0 -0.24189511 0.86251402 -0.44447297 0 2094 1
0.81822824 -1.0732875 -2.152571 0 -0.24189511 0.86251402 -0.44447297 0 2094 1
0.82604772 -1.0676819 -2.1498299 0 -0.24189511 0.86251402 -0.44447297 0 2094 1
0.83386719 -1.0620763 -2.1470888 0 -0.24189511 0.86251402 -0.44447297 0 2094 1
0.84168667 -1.0564708 -2.1443477 0 -0.24189511 0.86251402 -0.44447297 0 2094 1
0.84950614 -1.0508652 -2.1416066 0 -0.24189511 0.86251402 -0.44447297 0 2094 1
0.85732561 -1.0452596 -2.1388655 0 -0.24189511 0.86251402 -0.44447297 0 2094 1
0.86514509 -1.039654 -2.1361244 0 -0.24189511 0.86251402 -0.44447297 0 2094 1
0.87296456 -1.0340484 -2.1333833 0 -0.24189511 0.86251402 -0.44447297 0 2094 1
0.88078403 -1.0284429 -2.1306422 0 -0.24189511 0.86251402 -0.44447297 0 2094 1
0.88860351 -1.0228373 -2.1279011 0 -0.24189511 0.86251402 -0.44447297 0 2094 1
0.89642298 -1.0172317 -2.12516 0 -0.24189511 0.86251402 -0.44447297 0 2094 1
0.90424246 -1.0116261 -2.1224189 0 -0.24189511 0.86251402 -0.44447297 0 2094 1
0.91206193 -1.0060205 -2.1196778 0 -0.24189511 0.86251402 -0.44447297 0 2094 1
0.9198814 -1.000415 -2.1169367 0 -0.24189511 0.86251402 -0.44447297 0 2094 1
0.92770088 -0.99480939 -2.1141956 0 -0.24189511 0.86251402 -0.44447297 0 2094 1
0.93552035 -0.98920381 -2.1114545 0 -0.24189511 0.86251402 -0.44447297 0 2094 1
0.94333982 -0.98359823 -2.1087134 0 -0.24189511 0.86251402 -0.44447297 0 2094 1
0.9511593 -0.97799265 -2.1059723 0 -0.24189511 0.86251402 -0.44447297 0 2094 1
0.95897877 -0.97238708 -2.1032312 0 -0.24189511 0.86251402 -0.44447297 0 2094 1
0.96679825 -0.9667815 -2.1004901 0 -0.24189511 0.86251402 -0.44447297 0 2094 1
0.97461772 -0.96117592 -2.097749 0 -0.24189511 0.86251402 -0.44447297 0 2094 1
0.98243719 -0.95557034 -2.0950079 0 -0.24189511 0.86251402 -0.44447297 0 2094 1
0.99025667 -0.94996476 -2.0922668 0 -0.24189511 0.86251402 -0.44447297 0 2094 1
0.99807614 -0.94435918 -2.0895257 0 -0.24189511 0.86251402 -0.44447297 0 2094 1
1.0058956 -0.9387536 -2.0867846 0 -0.24189511 0.86251402 -0.44447297 0 2094 1
1.0137151 -0.93314803 -2.0840435 0 -0.24189511 0.86251402 -0.44447297 0 2094 1
1.0215347 -0.92754245 -2.0813024 0 -0.24189511 0.86251402 -0.44447297 0 2094 1
1.0293542 -0.92193687 -2.0785613 0 -0.24189511 0.86251402 -0.44447297 0 2094 1
1.0371737 -0.91633129 -2.0758202 0 -0.24189511 0.86251402 -0.44447297 0 2094 1
1.0449933 -0.91072571 -2.0730791 0 -0.24189511 0.86251402 -0.44447297 0 2094 1
1.0528128 -0.90512013 -2.070338 0 -0.24189511 0.86251402 -0.44447297 0 2094 1
1.0606323 -0.89951456 -2.0675969 0 -0.24189511 0.86251402 -0.44447297 0 2094 1
1.0684519 -0.89390898 -2.0648558 0 -0.24189511 0.86251402 -0.44447297 0 2094 1
1.0762714 -0.8883034 -2.0621147 0 -0.24189511 0.86251402 -0.44447297 0 2094 1
1.0840909 -0.88269782 -2.0593736 0 -0.24189511 0.86251402 -0.44447297 0 2094 1
1.0919105 -0.87709224 -2.0566325 0 -0.24189511 0.86251402 -0.44447297 0 2094 1
1.09973 -0.87148666 -2.0538914 0 -0.24189511 0.86251402 -0.44447297 0 2094 1
1.1075495 -0.86588109 -2.0511503 0 -0.24189511 0.86251402 -0.44447297 0 2094 1
1.1153691 -0.86027551 -2.0484092 0 -0.24189511 0.86251402 -0.44447297 0 2094 1
1.1231886 -0.85466993 -2.0456681 0 -0.24189511 0.86251402 -0.44447297 0 2094 1
1.1310081 -0.84906435 -2.042927 0 -0.24189511 0.86251402 -0.44447297 0 2094 1
1.1388277 -0.84345877 -2.0401859 0 -0.24189511 0.86251402 -0.44447297 0 2094 1
1.1466472 -0.83785319 -2.0374448 0 -0.24189511 0.86251402 -0.44447297 0 2094 1
1.1544667 -0.83224761 -2.0347037 0 -0.24189511 0.86251402 -0.44447297 0 2094 1
1.1622863 -0.82664204 -2.0319626 0 -0.24189511 0.86251402 -0.44447297 0 2094 1
1.1701058 -0.82103646 -2.0292215 0 -0.24189511 0.86251402 -0.44447297 0 2094 1
1.1779253 -0.81543088 -2.0264804 0 -0.24189511 0.86251402 -0.44447297 0 2094 1
1.1857449 -0.8098253 -2.0237393 0 -0.24189511 0.86251402 -0.44447297 0 2094 1
1.1935644 -0.80421972 -2.0209982 0 -0.24189511 0.86251402 -0.44447297 0 2094 1
1.2013839 -0.79861414 -2.0182571 0 -0.24189511 0.86251402 -0.44447297 0 2094 1
1.2092035 -0.79300857 -2.015516 0 -0.24189511 0.86251402 -0.44447297 0 2094 1
1.217023 -0.78740299 -2.0127749 0 -0.24189511 0.86251402 -0.44447297 0 2094 1
1.2248425 -0.78179741 -2.0100338 0 -0.24189511 0.86251402 -0.44447297 0 2094 1
1.2326621 -0.77619183 -2.0072927 0 -0.24189511 0.86251402 -0.44447297 0 2094 1
1.2404816 -0.77058625 -2.0045516 0 -0.24189511 0.86251402 -0.44447297 0 2094 1
1.2483011 -0.76498067 -2.0018106 0 -0.24189511 0.86251402 -0.44447297 0 2094 1
1.2561207 -0.7593751 -1.9990695 0 -0.24189511 0.86251402 -0.44447297 0 2094 1
1.2639402 -0.75376952 -1.9963284 0 -0.24189511 0.86251402 -0.44447297 0 2094 1
1.2717597 -0.74816394 -1.9935873 0 -0.24189511 0.86251402 -0.44447297 0 2094 1
1.2795793 -0.74255836 -1.9908462 0 -0.24189511 0.86251402 -0.44447297 0 2094 1
1.2873988 -0.73695278 -1.9881051 0 -0.24189511 0.86251402 -0.44447297 0 2094 1
1.2952183 -0.7313472 -1.985364 0 -0.24189511 0.86251402 -0.44447297 0 2094 1
1.3030379 -0.72574162 -1.9826229 0 -0.24189511 0.86251402 -0.44447297 0 2094 1
1.3108574 -0.72013605 -1.9798818 0 -0.24189511 0.86251402 -0.44447297 0 2094 1
1.3186769 -0.71453047 -1.9771407 0 -0.24189511 0.86251402 -0.44447297 0 2094 1
1.3264965 -0.70892489 -1.9743996 0 -0.24189511 0.86251402 -0.44447297 0 2094 1
1.334316 -0.70331931 -1.9716585 0 -0.24189511 0.86251402 -0.44447297 0 2094 1
1.3421355 -0.69771373 -1.9689174 0 -0.24189511 0.86251402 -0.44447297 0 2094 1
1.3499551 -0.69210815 -1.9661763 0 -0.24189511 0.86251402 -0.44447297 0 2094 1
1.3577746 -0.68650258 -1.9634352 0 -0.24189511 0.86251402 -0.44447297 0 2094 1
1.3655941 -0.680897 -1.9606941 0 -0.24189511 0.86251402 -0.44447297 0 2094 1
1.3734137 -0.67529142 -1.957953 0 -0.24189511 0.86251402 -0.44447297 0 2094 1
1.3812332 -0.66968584 -1.9552119 0 -0.24189511 0.86251402 -0.44447297 0 2094 1
1.3890527 -0.66408026 -1.9524708 0 -0.24189511 0.86251402 -0.44447297 0 2094 1
1.3968723 -0.65847468 -1.9497297 0 -0.24189511 0.86251402 -0.44447297 0 2094 1
1.4046918 -0.65286911 -1.9469886 0 -0.24189511 0.86251402 -0.44447297 0 2094 1
1.4125113 -0.64726353 -1.9442475 0 -0.24189511 0.86251402 -0.44447297 0 2094 1
1.4203309 -0.64165795 -1.9415064 0 -0.24189511 0.86251402 -0.44447297 0 2094 1
1.4281504 -0.63605237 -1.9387653 0 -0.24189511 0.86251402 -0.44447297 0 2094 1
1.4359699 -0.63044679 -1.9360242 0 -0.24189511 0.86251402 -0.44447297 0 2094 1
1.4437895 -0.62484121 -1.9332831 0 -0.24189511 0.86251402 -0.44447297 0 2094 1
